ncols         820
nrows         31
xllcorner     74.125
yllcorner     22.5625
cellsize      0.0625
NODATA_value  -9999
449 476 482 467 460 471 484 499 493 482 486 496 478 464 454 467 450 431 433 433 426 409 391 389 409 409 385 369 361 349 340 351 334 320 336 325 367 333 328 318 357 385 408 380 408 427 413 397 415 469 484 517 501 490 492 511 500 483 470 465 463 460 442 418 417 399 401 416 431 404 384 378 386 382 388 385 369 354 353 359 374 351 365 416 443 471 478 438 379 442 453 391 360 335 316 317 322 338 349 347 353 368 368 386 473 430 338 315 368 377 334 330 331 319 309 310 317 332 372 389 365 300 266 267 258 260 271 275 271 253 251 281 303 292 328 348 369 349 334 288 232 218 205 220 202 197 185 200 201 205 195 215 207 163 156 146 159 173 179 198 212 193 211 254 267 255 225 187 198 197 188 171 170 180 182 190 199 288 287 330 354 378 375 386 394 384 373 360 379 359 361 368 362 361 349 328 314 287 264 249 236 256 246 285 245 221 196 177 208 217 196 197 257 234 140 89 68 56 43 34 28 26 24 24 20 21 19 26 28 23 18 18 17 17 16 16 16 16 14 14 12 11 12 13 14 15 14 14 16 13 12 15 14 15 27 16 21 21 16 14 12 12 13 12 13 11 12 11 9 6 6 6 6 7 8 9 9 9 9 21 11 13 23 19 22 23 28 62 30 30 46 54 44 49 82 47 71 112 86 84 113 190 116 422 230 300 392 429 471 874 893 901 1462 875 775 770 771 822 844 1014 1203 1124 803 518 269 195 258 382 238 131 191 151 147 179 199 239 265 276 340 438 452 330 294 267 329 351 505 341 163 242 175 162 137 193 626 628 270 181 140 128 120 137 149 293 366 464 431 289 276 267 121 118 141 616 689 949 1019 1047 1468 1594 1489 1451 1147 1681 1676 1370 1295 1551 1171 1036 993 961 1388 1802 1818 1967 1894 1748 1326 1668 2136 1679 1181 824 1210 1747 1775 1362 1226 1593 1803 1623 1919 2547 2124 1316 1180 1205 1476 1418 1609 1515 1257 1482 2475 2155 1601 1305 1588 1605 2062 2403 2432 1759 1349 1452 1215 1236 1576 1536 1177 1542 1353 1358 1835 1764 1556 1748 1719 1579 1833 2206 2172 2194 1955 2016 2065 2084 2001 1844 1844 1924 1788 1577 1533 1887 1992 1899 1625 1565 1601 1808 1859 1756 2012 2217 1894 1570 1343 1242 1089 1239 1156 1173 1394 1345 1092 1096 1092 993 997 1045 951 868 864 881 781 929 1328 1387 1275 1151 979 992 977 759 603 729 902 821 632 700 921 1105 1169 1376 1250 1014 1038 859 891 920 940 820 825 820 752 757 802 722 655 538 741 510 448 650 675 635 506 342 500 503 531 297 362 355 285 269 240 234 220 186 178 178 169 193 189 227 273 172 155 158 105 114 132 146 119 121 131 98 114 126 153 155 264 564 561 379 219 189 185 211 424 751 463 326 300 373 278 216 309 206 204 186 191 223 141 137 149 192 378 430 332 355 499 636 612 421 885 733 446 311 596 445 408 312 276 299 311 457 257 441 321 625 550 730 903 536 805 507 221 272 337 514 219 196 566 498 585 195 240 420 399 498 692 647 488 407 815 799 571 399 261 324 354 275 228 229 218 256 211 251 421 377 337 399 351 253 253 203 378 249 227 126 245 191 220 269 291 310 150 165 314 522 702 567 601 697 754 484 296 231 102 141 230 61 23 58 13 4 4 14 11 37 49 3 4 13 34 9 0 0 0 0 0 0 0 0 0 0 0 0 0 0 0 0 0 0 0 0 0 0 0 0 0 0 0 0 0 0 0 0 0 0 17 97 229 305 474 1002 1589 1824 2073 2526 2608 2193 1230 1829 1789 1403 1139 1006 298 118 0 0 0 0 0 0 0 0 0 0 0 0 0 0 0 0 0 24 16 0 0 0 0 0 0 0 0 0 0 0 1 1 0 0 0 13 32 66 14 0 0 0 0 0 0 0 0 0 0 0 0 0 0 0 0 0
402 432 466 474 476 498 503 497 487 500 506 490 468 455 446 446 449 438 412 430 404 389 403 399 411 414 389 374 359 347 355 362 344 323 346 353 365 328 324 319 319 336 390 399 429 434 417 399 412 463 488 521 519 498 493 511 513 498 477 461 458 440 412 404 387 387 398 408 450 462 423 391 393 392 402 379 364 358 365 365 362 397 372 407 449 436 418 388 470 480 423 363 311 308 318 327 332 338 342 337 366 425 492 526 543 463 335 318 325 345 353 344 328 319 320 330 398 403 324 279 279 279 281 288 292 291 318 344 286 260 313 372 408 397 362 339 318 296 271 260 260 227 239 253 215 252 258 232 233 240 235 245 239 216 182 162 235 285 259 261 265 239 240 242 235 218 202 199 202 216 194 201 242 253 262 252 284 342 379 390 392 383 382 374 374 366 373 378 376 350 352 364 358 343 352 331 303 294 276 265 233 224 225 235 253 236 215 186 172 176 199 211 185 201 142 95 73 63 43 33 34 33 32 27 23 23 23 19 22 23 19 19 19 18 17 17 17 16 15 15 14 13 12 11 13 13 14 15 15 14 11 15 14 13 14 15 22 22 18 13 11 11 11 13 12 12 11 11 8 6 5 7 7 6 8 9 9 9 10 35 11 11 33 22 22 25 43 87 31 40 59 63 47 97 87 63 102 140 105 212 144 304 124 549 354 277 391 319 567 1122 1041 1115 1355 862 839 784 797 1008 939 1199 1157 916 689 398 218 178 310 529 222 169 137 133 148 182 200 226 264 353 456 502 349 343 350 316 415 422 272 199 162 230 145 148 178 258 642 344 203 144 128 115 119 161 229 295 272 299 213 267 268 299 116 116 189 479 651 1118 1240 1530 1558 1609 1419 1086 1594 1481 1205 1227 1375 1088 915 888 876 1000 1525 1888 1759 1811 1390 1078 1192 1358 1820 950 1289 1006 1322 1673 1540 1241 1318 1613 1915 1617 1651 1946 1811 1343 1525 1436 1946 1954 2194 1460 1490 1754 2383 2495 1960 1450 1339 1578 1679 2032 2451 2413 1740 1226 1095 1363 1629 1484 1070 1417 1188 1558 1869 1545 1537 1937 1870 1684 1994 2243 1969 1895 1664 1907 1998 1940 1823 1745 1963 1908 1901 1429 1631 1985 1976 1824 1489 1486 1678 1928 1769 1792 2140 2158 1484 1254 1191 1120 1160 1277 1280 1543 1608 1341 1142 1192 1355 1170 1021 936 949 903 944 1022 903 884 772 932 1004 1014 927 848 893 853 619 572 642 796 651 503 626 899 1209 1236 1262 1222 985 887 961 925 843 787 716 753 666 690 764 763 648 645 692 711 477 517 641 792 647 462 327 370 461 329 350 292 269 268 290 253 266 242 243 289 375 343 266 405 397 278 203 149 126 102 105 121 95 101 116 145 128 142 161 179 457 431 479 335 232 265 202 399 624 729 353 277 624 861 396 328 223 221 214 241 213 209 326 158 121 117 134 240 399 424 490 489 488 393 805 781 807 688 828 719 440 459 284 293 545 292 150 170 233 375 327 307 496 313 242 137 81 378 757 440 155 210 590 457 386 250 150 231 322 410 595 384 380 414 713 544 538 347 273 232 212 187 160 176 200 204 241 326 418 306 239 297 319 297 232 269 299 229 224 177 143 221 608 268 194 154 292 238 414 660 674 507 794 785 567 477 166 80 121 352 370 97 138 184 89 14 5 34 41 3 3 4 7 11 3 3 0 0 0 0 0 0 0 0 0 0 0 0 0 0 0 0 0 0 0 0 0 0 0 0 0 0 0 0 0 0 0 0 0 5 47 216 387 441 630 1132 1361 1754 2216 2904 2693 2079 2073 2316 1378 910 936 868 333 0 0 0 0 0 0 0 0 0 0 0 0 0 0 0 0 0 0 1 1 0 0 0 0 0 0 0 0 0 0 3 45 64 12 0 0 9 93 60 2 0 0 0 0 0 0 0 0 0 0 0 0 0 0 0 0 0
369 419 453 483 496 505 524 473 460 484 496 483 459 446 439 426 428 422 404 396 393 395 415 417 415 424 409 378 360 362 370 373 333 331 369 373 382 346 342 352 338 336 363 421 434 439 420 404 411 442 489 524 509 496 497 509 522 502 477 462 421 407 399 389 391 393 403 408 411 440 471 459 416 402 402 388 384 371 378 372 386 413 434 463 438 471 464 480 454 382 325 315 309 313 322 318 318 324 329 378 398 465 458 511 480 432 341 327 335 356 359 345 389 405 435 414 337 303 288 283 331 329 328 339 365 360 334 297 295 322 299 318 372 445 422 393 352 313 309 308 291 242 268 274 238 243 279 252 296 326 290 291 261 195 174 175 227 219 240 278 285 290 267 296 287 260 222 228 242 253 218 233 338 387 387 375 400 403 395 385 375 373 362 357 348 354 347 353 341 339 325 344 362 337 339 340 307 277 261 244 238 236 213 219 247 242 205 184 158 152 179 167 157 154 151 87 63 71 60 43 36 31 31 35 24 22 22 21 18 18 17 18 17 19 19 19 18 16 16 17 15 13 12 11 12 12 13 14 14 14 10 15 14 13 12 17 24 22 20 17 15 12 10 11 13 13 10 8 7 6 6 6 6 7 7 9 11 11 12 41 16 12 47 28 42 34 47 95 40 63 66 83 60 167 64 107 85 198 148 283 345 511 230 336 557 441 526 421 1208 1019 1103 956 1149 870 947 823 885 1081 1048 1159 1082 619 490 267 178 207 347 576 246 219 127 126 154 180 199 251 330 450 394 349 325 392 340 368 594 752 560 224 153 173 136 140 227 392 683 253 158 117 109 101 103 126 202 224 164 153 172 222 137 131 113 117 248 735 1202 1445 1522 1610 1480 1199 1014 1055 1507 1026 1174 1183 1010 1051 1156 1020 1078 1107 1539 2281 2117 2139 1817 1482 1023 1023 1151 1180 1691 1023 1303 1587 1276 1091 1329 1851 1876 1983 1783 1569 1654 1755 1954 1666 2068 2092 2176 1511 1390 1841 1823 2423 2347 1717 1228 1569 1561 1574 2116 2609 2497 1708 1388 1155 1756 1229 1080 933 1117 1649 2060 1570 1553 2040 1847 1840 2100 2224 1839 1735 1654 1758 1887 1789 1751 1837 2245 2099 1998 1369 1602 1954 1988 1684 1423 1584 1783 1926 1747 1701 1668 1292 1334 1282 1431 1315 1489 1553 1451 1486 1524 1407 1270 1346 1487 1425 1184 993 951 971 920 1028 1047 908 907 822 716 707 687 729 659 771 602 470 566 734 848 671 518 547 729 839 1126 1311 738 747 908 850 847 779 720 696 802 596 696 714 558 647 557 740 601 415 530 775 758 606 441 344 474 492 452 220 265 321 343 300 253 261 298 343 403 352 376 426 430 446 303 178 171 118 92 139 142 109 162 167 129 129 168 183 202 359 681 585 618 443 324 656 509 676 495 372 401 638 665 469 324 283 401 318 338 363 328 164 207 299 143 203 529 671 983 530 745 636 581 876 894 961 905 573 226 134 206 394 614 464 153 104 164 134 83 92 199 90 51 63 231 518 575 344 110 215 515 204 234 183 195 422 663 612 640 409 337 635 659 493 495 462 250 171 171 180 224 215 187 207 313 254 226 209 206 230 356 397 293 245 216 120 221 221 122 280 430 333 116 361 195 202 316 411 531 475 658 635 501 481 217 252 248 484 559 254 96 119 150 76 74 95 77 70 2 0 0 0 0 0 0 0 0 0 0 0 0 0 0 0 0 0 0 0 0 0 0 0 0 0 0 0 0 0 0 0 0 0 0 0 0 0 1 30 122 208 346 405 754 1109 1836 2616 2821 2776 2101 2127 2681 2780 1966 1271 707 689 194 0 0 0 0 0 0 0 0 0 0 0 0 0 0 0 0 0 0 0 0 0 0 0 0 0 0 0 0 0 4 47 184 283 123 7 0 4 25 13 0 0 0 0 0 0 0 0 0 0 0 0 0 0 0 0 0 0
386 430 453 461 470 470 524 451 426 466 508 518 473 456 455 432 426 418 412 396 403 418 432 430 433 435 409 386 367 373 378 362 336 336 386 407 382 363 351 394 358 344 342 394 431 456 442 412 412 443 496 526 515 499 506 515 527 488 482 448 421 412 407 389 402 406 409 413 416 422 447 483 455 438 441 444 399 422 429 432 435 456 475 482 485 494 464 410 341 318 315 312 320 313 315 324 338 370 388 402 466 489 499 535 537 434 337 340 351 356 379 468 479 381 348 324 297 285 311 349 391 416 410 424 410 350 304 325 328 363 301 316 375 431 449 417 376 349 351 349 315 273 254 304 305 268 268 275 275 269 249 230 211 213 199 181 203 235 264 307 322 365 343 360 347 265 252 279 310 346 249 298 381 415 417 410 412 421 405 392 394 402 399 383 365 350 340 326 318 326 309 330 350 329 317 333 335 313 285 255 231 211 210 204 231 255 210 184 162 141 166 170 134 118 115 86 72 51 42 39 34 31 25 33 33 23 21 21 21 20 21 20 18 16 20 19 18 17 17 15 13 14 11 12 11 11 13 13 14 12 9 14 14 12 10 16 23 21 19 19 20 16 11 12 12 12 12 10 8 6 6 7 6 7 9 11 14 13 16 41 22 21 56 34 63 50 47 95 51 89 65 86 122 164 64 231 114 210 240 241 373 593 220 509 691 590 649 667 1317 847 1067 872 998 954 978 849 902 1032 1166 1198 879 534 433 201 169 314 441 455 256 178 119 141 171 200 241 285 426 439 324 328 338 363 323 400 510 769 715 226 161 235 128 124 198 349 448 205 117 95 97 98 102 107 114 119 124 122 163 148 111 108 115 133 633 1077 1490 1752 1643 1169 997 957 971 1187 1192 1015 1309 1050 865 1135 1382 1458 1475 1600 2128 2511 2342 2132 1871 1251 970 928 1091 1262 1681 1084 1306 1287 1387 1272 1616 2037 1845 2444 2077 1903 1984 1896 2001 1852 2087 2004 2082 1627 1320 1849 1522 1952 2043 1930 1442 1279 1715 1403 1696 2072 2573 2256 1290 1026 1411 1119 1466 1202 912 1334 1365 1201 1582 1968 1817 1557 1794 1916 1881 1792 1757 1910 1822 1854 1810 1936 2109 1963 2105 1327 1536 1908 1894 1503 1409 1504 1882 1993 1966 1765 1373 1551 2001 1677 1401 1400 1494 1613 1592 1592 1621 1496 1244 1385 1425 1514 1193 1133 1139 1147 991 973 1018 974 936 851 822 868 793 785 669 600 626 668 508 620 686 688 671 512 506 627 912 956 813 676 692 878 821 675 827 730 724 548 566 592 555 588 493 745 723 554 521 757 836 694 566 402 377 538 532 359 333 368 358 298 296 317 401 507 375 373 416 439 417 432 364 215 165 113 103 100 218 96 143 154 113 139 165 232 213 335 659 884 862 814 291 405 457 582 296 442 311 470 511 282 276 325 401 265 308 358 328 376 519 422 271 241 416 567 918 900 689 525 279 574 857 748 911 689 249 150 384 524 476 414 325 207 92 54 55 60 118 83 49 46 190 412 138 102 103 155 169 164 150 245 466 605 446 344 357 361 457 766 431 308 424 239 211 188 164 180 138 187 457 335 214 192 213 222 179 175 250 314 329 193 160 88 135 162 268 343 259 271 219 209 397 359 171 279 267 386 489 653 491 293 191 235 551 587 243 140 118 74 215 115 115 109 160 108 3 0 0 0 0 0 0 0 0 0 0 0 0 0 0 0 0 0 0 0 0 0 0 0 0 0 0 0 0 0 0 0 0 0 0 0 0 0 5 103 167 221 359 416 745 1449 2234 2007 2079 1944 1956 2478 2601 1926 1785 1703 1459 697 2 0 0 0 0 0 0 0 0 0 0 0 0 0 0 0 0 0 0 0 0 0 0 0 0 0 0 0 0 0 19 66 131 93 17 0 0 0 0 0 0 0 0 0 0 0 0 0 0 0 0 0 0 0 0 0 0 0
417 449 439 401 363 349 420 451 398 418 500 508 470 474 457 450 445 428 415 402 400 423 455 452 449 419 400 384 388 392 377 362 351 341 380 408 374 383 365 395 369 370 362 362 391 442 444 412 412 435 475 525 519 505 507 522 514 468 442 429 421 412 395 395 411 419 424 423 415 427 451 458 459 491 485 479 450 460 460 479 483 483 498 500 490 437 380 335 321 331 322 313 326 331 369 425 369 440 415 374 417 508 531 520 462 387 351 414 447 426 398 364 361 355 334 314 306 314 335 349 351 374 408 373 341 322 356 412 440 404 381 403 384 402 394 401 372 371 337 344 333 302 281 327 310 255 225 264 273 295 300 254 240 262 240 195 195 250 271 255 286 303 310 353 339 327 329 338 379 358 341 400 430 443 436 434 434 464 420 422 444 483 422 386 371 352 332 317 308 299 291 294 324 335 308 314 319 290 265 240 217 209 193 196 250 253 214 183 163 135 137 142 164 135 174 102 64 53 44 38 32 27 23 30 33 26 21 20 21 20 21 20 19 17 19 18 17 16 15 14 13 12 14 13 12 11 12 12 12 10 10 13 13 12 11 9 20 21 17 18 20 19 15 16 14 13 12 12 10 8 6 7 7 9 8 12 33 14 19 31 31 43 68 38 85 67 57 86 76 101 90 89 212 99 90 196 269 237 349 291 261 465 248 662 597 913 1048 774 882 810 916 884 957 1222 1144 893 881 1134 1378 1160 705 524 261 165 176 486 502 241 160 134 138 167 201 239 283 353 533 349 320 322 326 300 354 594 809 881 692 274 211 321 126 117 142 338 322 138 97 101 106 106 119 121 110 109 204 184 186 126 105 106 121 149 538 936 1590 1904 1573 1043 940 961 1186 1365 1112 1003 859 843 1030 1369 1775 1743 1860 2164 1806 2298 1842 1861 1318 1031 1094 1333 1383 1664 1657 1234 940 972 1203 1660 2197 2071 2024 2165 1670 1837 1477 1708 1876 1875 2275 2192 1913 1630 1236 1451 1573 1826 1634 1838 1627 1258 1448 1718 1413 1657 2226 2712 1721 876 941 1316 1748 1903 1606 1267 1376 2026 1745 1690 1722 1556 1949 1812 1800 1752 1784 1987 2033 2068 1923 1924 1770 1810 2072 1248 1432 1835 1790 1565 1426 1531 1863 1907 1627 1423 1541 2084 1909 1760 1531 1544 1556 1605 1644 1563 1400 1302 1211 1381 1606 1654 1526 1381 1318 1438 1145 1040 1093 1019 957 1023 1125 1075 1042 948 1002 924 795 662 554 626 724 567 578 685 484 454 671 929 688 588 707 777 810 715 574 775 701 511 405 375 455 494 460 587 629 533 637 845 849 705 616 430 411 469 500 461 306 389 408 477 414 311 478 423 356 426 431 393 430 405 273 173 130 102 104 125 163 101 212 136 140 158 154 192 221 606 741 1026 876 707 445 308 243 457 500 280 333 268 173 257 459 489 452 240 219 324 609 641 726 585 283 193 426 686 737 737 508 436 277 493 715 527 530 606 341 309 428 370 316 229 157 339 153 109 78 126 258 159 50 66 300 365 89 93 132 125 200 273 187 373 680 676 470 235 200 375 361 541 281 175 175 145 163 195 229 262 143 145 217 198 172 186 209 239 147 135 211 295 333 271 204 141 349 450 635 645 522 505 284 199 267 298 272 461 426 447 477 916 575 396 451 275 471 444 254 138 108 193 143 96 34 25 12 0 0 0 0 0 0 0 0 0 0 0 0 0 0 0 0 0 0 0 0 0 0 0 0 0 0 0 0 0 0 0 0 0 0 0 0 0 0 2 10 163 143 221 447 500 1001 1499 1412 1999 2254 2066 2391 2687 2070 1232 1525 1587 1055 91 0 0 0 0 0 0 0 0 0 0 0 0 0 0 0 0 0 0 0 0 0 0 0 0 0 0 0 0 0 0 0 0 0 0 1 2 2 0 0 0 0 0 0 0 0 0 0 0 0 0 0 0 0 0 0 0 0 0
386 426 356 315 295 268 296 370 381 451 500 492 483 487 466 450 430 422 417 422 417 417 438 460 461 427 421 394 412 406 381 391 359 350 384 397 375 403 386 388 373 379 376 382 400 444 430 426 411 426 470 526 521 510 511 516 491 451 440 437 421 405 395 399 403 415 425 432 420 426 439 456 473 500 480 465 469 481 485 477 467 472 481 459 396 350 339 329 337 332 317 321 358 418 452 409 381 406 392 368 394 487 572 509 384 407 443 408 380 364 353 344 341 324 339 335 362 341 355 379 351 364 386 358 341 331 369 433 413 396 388 397 402 371 360 445 383 395 279 266 266 287 326 330 298 270 253 268 308 348 337 283 254 233 219 204 196 198 205 219 236 256 285 308 330 356 378 377 380 394 397 437 460 474 476 473 453 484 494 481 496 557 506 415 394 380 372 345 318 300 288 282 269 287 273 291 299 305 288 261 233 203 184 195 228 224 216 170 203 187 128 156 171 113 141 97 64 51 37 32 26 24 21 25 28 20 21 19 20 20 21 20 18 16 16 17 16 13 15 15 15 14 13 12 11 12 10 11 11 8 9 12 12 11 11 10 17 17 15 16 18 16 14 14 13 12 13 11 10 6 7 7 8 9 8 12 44 44 23 32 47 77 78 48 119 62 56 81 73 90 155 93 184 94 157 109 195 344 478 319 371 429 671 513 741 1055 893 782 1014 885 756 953 1008 1205 1009 898 1040 1215 1279 1171 693 462 205 154 208 422 343 151 124 159 182 191 224 239 285 370 491 343 329 330 280 331 429 546 998 1203 730 286 214 244 111 146 195 386 182 98 110 120 122 123 126 121 123 169 221 318 134 127 107 119 139 292 826 1144 1502 1496 1333 1061 967 1134 1508 1576 1273 997 998 1384 1612 1765 1540 1382 1346 1459 1197 1234 1267 1073 1383 1870 1892 1649 1865 1848 1742 1431 945 1011 1238 1854 2587 2218 1994 1410 1667 1203 1488 1422 2012 1810 1988 2234 1679 1674 1328 1887 1899 1997 1473 1583 1712 1423 1253 1694 1401 1406 1880 2548 2428 1325 764 1308 1476 1616 1776 1988 1765 2118 1666 1485 1464 1662 2039 1847 1690 1611 1839 2039 1848 1808 1800 1995 1802 1808 1988 1363 1440 1795 1707 1508 1346 1547 1624 1397 1368 1510 1830 2052 1909 1626 1482 1464 1479 1578 1637 1576 1453 1380 1287 1282 1532 1608 1547 1452 1454 1496 1270 1200 1129 1142 1091 946 917 947 837 750 939 765 670 634 617 399 526 588 465 514 562 438 437 771 658 403 590 680 744 662 498 692 682 671 395 314 345 340 451 389 322 488 724 872 823 677 559 419 345 429 459 533 453 257 269 562 484 340 390 292 409 457 431 328 350 318 299 183 139 168 131 191 149 137 200 109 100 122 142 164 292 716 855 1166 1008 603 493 363 174 250 368 518 297 301 418 439 313 386 507 203 282 391 618 543 440 476 414 289 253 497 537 442 425 493 224 353 489 407 416 526 517 525 509 203 131 235 150 290 217 93 124 203 270 156 48 261 239 339 149 100 172 174 202 338 377 592 726 549 305 163 182 432 378 601 560 237 140 140 174 212 323 384 260 130 99 171 327 204 236 204 158 120 138 215 335 240 189 160 382 558 510 653 407 391 284 192 230 268 472 677 277 526 571 458 483 196 210 441 279 114 66 53 100 64 142 47 28 4 0 0 0 0 0 0 0 0 0 0 0 0 0 0 0 0 0 0 0 0 0 0 0 0 0 0 0 0 0 0 0 0 0 0 0 0 0 0 1 4 25 148 88 133 380 668 832 1118 1856 2166 1577 2057 2896 2403 1768 1672 1284 853 176 0 0 0 0 0 0 0 0 0 0 0 0 0 0 0 0 0 0 0 0 0 0 0 0 0 0 0 0 0 0 0 0 0 0 0 0 0 0 0 0 0 0 0 0 0 0 0 0 0 0 0 0 0 0 0 0 0 0 0
327 388 331 239 229 231 267 371 407 483 513 494 497 481 453 437 443 439 438 441 432 422 420 438 461 453 446 422 422 421 409 389 369 365 388 396 379 409 394 402 390 375 401 413 397 411 435 449 421 421 471 510 520 521 511 510 495 463 447 429 421 410 397 406 404 409 424 432 423 435 463 485 496 486 462 458 474 482 466 444 438 462 422 367 345 337 338 342 335 322 321 379 459 431 408 392 397 410 397 373 397 466 480 441 472 402 371 375 361 349 340 338 334 370 403 351 372 353 345 364 385 412 408 363 348 359 364 430 430 424 418 423 444 388 313 299 290 277 266 265 268 299 348 359 327 315 272 291 322 341 338 298 274 278 266 237 217 219 216 211 222 238 245 258 268 283 305 345 372 445 468 474 498 536 514 509 493 520 579 579 579 580 570 561 555 461 405 370 343 336 338 358 317 267 245 255 259 268 273 280 241 225 188 180 205 202 199 167 145 213 179 136 118 100 82 82 60 44 35 31 28 25 19 23 24 19 20 19 19 20 20 20 20 15 14 13 14 17 15 18 16 15 14 14 11 13 12 11 10 7 9 12 11 11 11 10 11 11 12 13 18 13 14 13 11 11 12 13 10 9 6 9 8 6 8 11 36 86 40 31 50 100 107 62 148 58 83 98 90 74 233 109 243 156 286 134 321 341 634 303 570 367 602 517 877 891 830 689 937 1111 781 963 1106 1326 970 1056 1222 1439 1157 782 668 306 173 157 320 365 373 141 206 208 163 232 287 296 350 443 386 352 362 279 273 349 473 603 837 726 609 293 210 223 117 185 309 352 118 95 120 124 126 132 138 145 204 233 257 274 127 120 121 121 162 348 688 931 1153 1091 1198 1142 1234 1206 1134 1096 1009 1033 1392 1675 1228 1056 1173 1215 1123 1015 1088 1368 1697 1534 1716 1407 1547 1857 1409 1451 1702 1216 1055 1230 1747 2575 2836 1978 1211 1206 1251 1707 1689 1518 2075 2188 1804 1703 1344 1287 1524 1773 1965 1875 1437 1487 1976 1754 1374 1351 1577 1214 1719 1962 2612 2149 1046 806 1234 1568 1636 2059 1935 1709 1536 1401 1391 1375 1646 1835 1862 1774 1710 1904 2036 1974 1925 2030 1911 1744 1554 1543 1416 1886 1731 1572 1221 1381 1435 1301 1713 1880 2022 2085 1952 1814 1664 1551 1483 1523 1502 1484 1546 1491 1266 1267 1404 1539 1530 1441 1356 1393 1318 1373 1322 1268 1195 1127 986 863 750 869 603 696 704 764 784 543 400 508 447 416 475 339 369 498 675 629 399 457 625 637 494 598 713 740 529 420 398 366 372 267 367 515 648 810 818 654 532 395 259 331 473 546 548 435 167 473 527 302 221 313 462 410 411 304 268 346 404 230 164 211 111 167 138 165 135 118 128 141 143 172 390 698 923 1107 828 608 404 316 378 250 307 302 198 199 586 481 246 281 423 289 571 384 505 466 305 586 471 179 220 468 365 229 194 150 108 355 405 186 469 605 548 613 436 314 90 146 158 174 208 136 107 109 108 167 180 289 293 332 183 124 137 194 333 516 767 629 702 479 286 196 412 381 296 537 321 159 129 142 209 278 437 535 288 99 206 239 317 189 198 183 188 163 115 143 182 160 137 292 553 491 314 234 407 286 253 519 420 429 386 238 402 381 592 312 289 165 144 349 426 288 35 27 26 66 136 82 7 0 0 0 0 0 0 0 0 0 0 0 0 0 0 0 0 0 0 0 0 0 0 0 0 0 0 0 0 0 0 0 0 0 0 0 0 0 0 0 3 7 18 45 41 115 327 696 609 875 1073 1310 1549 1973 2486 2815 2558 2130 1369 390 2 0 0 0 0 0 0 0 0 0 0 0 0 0 0 0 0 0 0 0 0 0 0 0 0 0 0 0 0 0 0 0 0 0 4 0 0 0 0 0 0 0 0 0 0 0 0 0 0 0 0 0 0 0 0 0 0 0 0 0
199 236 261 239 224 243 275 370 467 501 500 510 490 454 451 447 450 454 462 460 450 438 418 432 445 461 469 454 452 432 426 392 387 380 381 390 396 408 422 401 411 383 406 418 424 411 425 456 423 424 469 508 521 524 494 498 510 478 444 424 412 404 398 412 414 417 420 431 434 476 498 509 486 469 463 480 480 466 463 421 381 370 357 351 342 339 344 338 328 321 355 456 453 428 411 398 419 409 375 365 421 426 459 412 375 383 373 344 339 343 341 360 367 411 386 374 373 357 369 388 410 450 486 440 383 365 392 396 405 418 450 474 394 344 298 278 269 267 275 298 301 335 383 397 369 335 298 313 333 356 366 389 393 363 320 281 271 237 238 233 245 249 267 289 302 295 294 359 412 451 494 530 550 565 584 588 613 606 613 604 581 568 555 549 547 500 427 381 342 303 324 374 349 290 259 241 223 215 230 238 214 217 190 169 191 195 183 166 141 120 112 100 87 92 74 60 51 44 39 36 32 26 18 19 20 20 19 18 18 19 19 20 20 19 18 18 18 17 12 16 16 15 15 14 13 12 11 10 7 7 10 11 11 11 11 10 10 11 15 12 14 10 10 13 11 11 15 13 10 8 8 9 8 7 8 15 36 96 64 39 50 103 147 74 148 65 88 131 106 85 270 172 258 245 269 192 400 290 587 307 839 538 886 487 765 878 786 762 1308 1111 908 1057 1279 1234 1101 1215 1381 1270 815 704 438 224 156 179 309 402 316 141 238 263 178 185 243 306 389 409 316 364 337 255 293 345 401 650 679 452 410 241 205 211 120 208 341 317 111 95 104 107 120 179 222 200 287 426 362 232 135 124 130 138 289 503 1033 1249 1215 963 1108 1460 1252 865 829 857 1016 1276 1371 1375 1488 1568 1084 885 1035 1387 1737 1859 1966 1605 1306 1269 1689 1322 1671 1960 1578 1367 1522 1332 1929 2280 2076 1251 1045 1201 1411 1880 1774 1609 1991 2507 2236 1351 1527 1255 1452 1821 2098 1730 1259 1362 1957 1940 1678 1223 1596 1243 1273 1603 2152 2463 1761 763 1012 1293 1297 1575 1648 1691 1841 1372 1277 1274 1612 1966 1953 2046 1926 1730 1733 1767 1836 1850 1503 1621 1483 1580 1319 1668 1754 1545 1240 1336 1413 1202 1467 1899 1970 2068 2027 1996 1948 1834 1553 1507 1543 1560 1556 1460 1416 1509 1510 1500 1441 1343 1317 1303 1303 1302 1445 1441 1169 914 1084 799 790 969 825 979 1038 990 1008 538 385 434 454 393 512 343 350 455 351 312 330 463 616 565 537 447 664 699 464 382 457 448 396 384 347 433 575 694 781 666 477 309 247 245 391 484 539 523 170 297 571 317 172 358 426 418 316 300 245 335 423 159 146 132 104 146 133 164 157 134 129 131 157 169 499 647 810 741 509 481 520 488 443 221 324 302 358 150 221 313 255 251 225 392 364 269 341 326 189 208 129 88 204 269 238 104 80 86 104 149 271 212 316 460 731 521 485 408 222 185 150 205 265 195 207 219 109 257 233 264 330 155 141 137 137 192 264 498 634 428 227 293 525 344 398 414 283 320 214 121 130 163 293 304 455 167 117 241 432 276 374 313 219 141 146 174 171 143 139 120 212 514 526 304 225 196 229 231 348 571 639 514 319 140 405 400 341 255 477 189 132 181 107 367 366 235 69 16 6 10 4 0 0 0 0 0 0 0 0 0 0 0 0 0 0 0 0 0 0 0 0 0 0 0 0 0 0 0 0 0 0 0 0 0 0 0 0 0 0 1 6 12 22 118 58 164 393 445 569 666 1436 1270 1355 1831 2538 1680 1478 1634 1059 199 4 0 0 0 0 0 0 0 0 0 0 0 0 0 0 0 0 0 0 0 0 0 0 0 0 0 0 0 0 0 0 0 0 0 7 0 0 0 0 0 0 0 0 0 0 0 0 0 0 0 0 0 0 0 0 0 0 0 0 0
190 190 196 214 219 209 251 415 503 441 496 509 483 471 474 460 463 467 474 458 446 427 438 425 437 461 479 487 477 444 437 405 403 390 378 396 414 425 432 413 426 400 393 415 427 430 424 441 427 428 464 493 516 501 479 474 488 466 442 426 414 401 399 412 434 433 426 435 457 514 506 482 478 497 497 499 489 472 437 393 381 372 358 355 349 343 344 339 348 354 348 423 440 416 411 409 425 399 378 376 400 399 373 362 358 354 348 351 358 374 360 354 369 402 417 408 378 369 373 385 409 444 482 464 425 421 539 488 401 411 447 502 479 321 307 311 283 304 332 358 350 365 397 397 376 347 378 395 373 439 393 433 502 455 370 317 305 299 314 257 266 265 298 324 376 407 375 373 446 493 512 543 573 514 531 591 627 638 634 612 610 584 560 542 489 450 427 390 359 322 277 448 645 353 316 322 331 261 213 190 186 188 187 163 165 171 169 155 141 139 124 106 89 75 71 57 51 45 41 35 29 26 22 17 16 18 18 17 18 19 19 18 20 19 18 17 16 16 13 11 12 14 14 14 12 11 11 11 7 8 10 11 10 11 11 10 10 9 13 11 13 9 8 10 11 10 10 8 7 6 8 8 6 10 16 24 39 88 100 50 63 107 162 79 158 83 90 173 127 90 305 250 212 407 234 390 318 498 568 337 796 586 761 650 868 829 1328 817 1116 1092 883 1128 1424 1282 1130 1505 1787 1257 1148 698 342 183 156 278 262 313 264 135 204 287 218 265 265 276 347 374 349 390 267 257 305 324 405 792 517 311 244 232 203 274 129 176 364 306 97 94 100 111 130 177 183 218 246 466 597 267 136 130 140 159 387 813 1104 1417 1052 958 926 928 810 770 862 1140 1181 1232 1240 1590 1134 989 916 1409 1623 1478 1652 1789 1621 1368 1177 1648 1361 1523 2123 1745 1786 1495 1546 1835 2284 1465 1189 1202 1206 1588 1974 1904 2066 1753 1946 2709 2629 1792 1097 1341 1512 1909 1801 1748 1302 1344 1745 1947 1582 1390 1451 1630 1198 1245 1742 2255 2266 1507 794 812 1274 1507 1853 2016 2164 1507 1370 1801 1449 1864 2246 2173 2002 1844 1651 1518 1376 1466 1634 1838 1720 1605 1228 1508 1631 1259 1209 1391 1396 1388 1409 1679 1737 1945 1990 1998 1936 1836 1605 1568 1598 1587 1403 1493 1532 1501 1475 1431 1398 1334 1268 1245 1350 1376 1374 1367 1308 1084 829 835 828 978 1127 1173 1097 993 943 598 520 352 516 436 421 353 269 275 321 244 211 289 412 420 547 380 611 608 456 336 392 368 366 293 312 394 305 513 694 570 418 301 240 194 372 529 488 439 316 362 421 277 175 387 375 385 352 334 226 222 430 147 123 116 89 102 105 141 132 127 138 181 250 271 650 1056 695 652 367 231 360 335 308 211 165 228 382 187 146 276 265 135 368 639 716 321 254 272 90 181 158 59 120 159 153 124 71 79 105 107 111 114 277 582 824 622 583 650 536 148 78 300 344 326 363 98 66 170 254 309 592 198 194 217 316 258 343 596 577 398 430 490 634 517 397 316 251 153 296 141 264 342 592 387 137 80 150 287 404 329 449 293 168 161 146 139 122 124 139 174 285 466 230 178 302 308 128 118 402 745 824 607 171 142 243 249 164 473 665 236 66 54 116 466 261 48 29 2 5 0 0 0 0 0 0 0 0 0 0 0 0 0 0 0 0 0 0 0 0 0 0 0 0 0 0 0 0 0 0 0 0 0 0 0 0 0 0 0 0 4 11 17 22 83 137 196 319 632 511 484 1015 1103 1474 1934 2640 2109 1351 741 404 24 1 0 0 0 0 0 0 0 0 0 0 0 0 0 0 0 0 0 0 0 0 0 0 0 0 0 0 0 0 0 0 0 0 0 0 0 0 0 0 0 0 0 0 0 0 0 0 0 0 0 0 0 0 0 0 0 0 0 0 0
200 175 191 196 196 195 216 346 440 395 489 494 474 493 482 480 484 481 477 454 427 426 435 441 429 446 466 489 482 460 452 428 409 387 390 405 426 439 433 429 431 418 396 417 427 439 461 464 433 435 456 482 533 512 482 471 447 431 425 416 403 405 408 414 446 442 431 440 506 496 492 495 499 526 531 507 491 477 422 420 405 367 358 361 352 359 354 383 378 346 345 380 438 424 424 423 440 417 401 388 388 385 371 382 375 376 367 372 369 387 384 395 372 377 395 393 394 399 382 389 420 437 484 542 472 491 616 624 501 435 446 525 636 530 324 355 350 344 372 390 409 421 441 445 408 395 423 471 468 447 402 431 507 477 410 362 361 378 378 306 270 288 304 346 393 445 482 492 491 513 540 565 569 515 481 485 456 485 602 599 580 573 618 602 506 437 382 341 366 366 274 254 290 308 315 294 255 239 234 213 177 162 166 170 148 143 154 142 121 126 122 103 95 80 68 59 54 45 39 34 29 25 21 19 17 18 16 16 17 19 18 17 18 17 18 18 17 15 15 15 13 13 11 10 10 10 8 10 9 7 8 11 10 11 11 10 10 10 15 9 11 10 9 9 10 8 7 6 6 6 7 7 8 12 27 34 44 70 120 67 64 113 170 98 139 136 92 169 214 116 345 267 201 460 286 468 241 613 470 368 738 647 733 706 827 966 1449 900 958 1133 947 1369 1257 1133 1136 1632 1367 1262 857 637 284 161 225 338 344 364 152 135 210 310 258 279 324 359 426 400 398 299 253 259 300 288 416 622 278 226 205 257 215 291 170 152 390 218 93 106 119 144 138 164 166 181 353 480 591 257 160 140 149 337 520 1042 1390 1201 970 845 779 758 850 1029 1039 1119 1048 1255 1682 1436 967 1115 1037 1289 1419 1083 1413 1501 1386 1337 1241 1229 1137 1595 1882 1871 2140 1833 1727 2096 1575 1025 1488 1275 1446 2229 2226 2160 1774 1560 1960 2248 2353 1519 996 1278 1604 1868 1577 2010 1441 1356 1584 1893 1921 1502 1458 1840 1675 1254 1461 1730 2069 2001 1070 692 869 1026 1247 1753 1810 1653 1414 1365 1292 1674 1952 2110 2006 1835 1805 1635 1557 1466 1754 1882 1661 1462 1365 1545 1537 1294 1292 1286 1335 1271 1375 1590 1528 1682 1738 1787 1808 1779 1650 1626 1611 1541 1491 1527 1513 1573 1604 1514 1434 1390 1410 1350 1311 1314 1271 1263 1204 973 953 721 1011 1126 1293 1237 990 777 685 684 377 367 381 424 443 438 474 291 228 186 215 369 314 263 292 313 490 614 549 361 299 313 304 331 484 443 559 411 421 370 427 339 196 204 288 519 442 428 449 387 416 264 193 316 340 280 256 350 259 156 313 182 88 117 84 79 88 93 147 158 193 503 271 497 846 837 942 574 268 182 198 326 226 291 140 296 370 255 134 132 148 196 452 705 453 336 263 215 130 227 323 101 60 107 180 466 72 84 73 94 103 167 325 453 486 372 644 408 204 129 69 159 206 265 168 140 91 418 288 135 152 140 171 310 611 400 413 468 521 352 497 301 455 454 413 161 175 193 161 210 296 305 330 161 128 188 145 213 445 420 491 362 257 291 213 163 125 199 299 352 443 407 405 360 391 338 236 75 310 765 581 485 408 129 80 162 195 253 562 604 260 87 93 58 12 7 5 3 3 0 0 0 0 0 0 0 0 0 0 0 0 0 0 0 0 0 0 0 0 0 0 0 0 0 0 0 0 0 0 0 0 0 0 0 0 0 0 0 1 9 15 22 31 68 254 157 283 713 688 697 1044 1488 2218 1899 2498 1606 1664 1071 105 62 0 0 0 0 0 0 0 0 0 0 0 0 0 0 0 0 0 0 0 0 0 0 0 0 0 0 0 0 0 0 0 0 0 0 0 0 0 0 0 0 0 0 0 0 0 0 0 0 0 0 0 0 0 0 0 0 0 0 0 0
179 164 170 200 239 227 215 291 381 368 450 496 481 501 502 491 480 472 452 435 444 444 426 437 434 448 476 495 498 484 474 457 412 392 402 403 417 433 448 446 442 421 404 405 424 435 455 490 440 433 467 497 511 480 468 477 459 434 420 409 410 414 411 436 450 443 439 445 462 496 501 499 513 517 539 512 491 474 458 409 378 368 370 360 359 378 363 356 361 353 367 379 457 443 468 535 511 424 420 395 380 390 397 393 370 386 397 395 387 406 432 421 382 369 377 412 436 424 406 416 418 438 475 523 517 567 635 633 554 457 453 490 522 418 390 454 409 385 361 392 433 453 465 482 466 465 476 511 494 466 477 421 424 437 440 429 405 380 319 295 332 335 320 354 365 415 437 431 470 523 553 552 524 484 449 472 468 422 434 509 499 447 470 459 606 531 342 285 317 381 308 251 229 249 232 240 254 228 203 186 179 163 158 160 159 138 125 128 117 109 103 99 83 72 55 50 47 45 43 35 27 24 22 19 17 18 17 16 15 17 18 17 17 17 16 17 17 15 13 14 14 13 13 12 11 9 9 11 10 6 6 10 10 10 10 10 9 8 12 8 11 8 11 8 9 6 6 7 7 8 7 7 7 10 20 29 35 53 116 88 67 109 135 118 139 181 99 155 285 170 390 293 236 608 345 569 289 749 478 421 984 1039 722 955 718 1118 1511 972 964 1180 1041 1506 1626 979 1303 1638 1211 911 838 516 223 164 294 336 368 249 135 184 241 304 330 357 357 423 490 387 374 266 260 252 324 308 334 358 203 194 203 271 232 314 138 102 312 140 95 114 149 174 144 153 180 243 380 456 320 179 156 147 166 462 553 869 1295 1074 928 778 755 908 1472 1249 1017 920 1018 1433 1486 1284 1080 1212 1129 1191 1435 951 1454 1616 1350 1324 1357 992 1620 1903 1901 2305 2456 1962 1826 1194 936 1278 1391 1446 1738 2205 2050 2217 2017 1705 2079 1816 1705 1123 992 1542 1705 1772 1536 2006 1420 1418 1298 1792 2180 1605 1350 1783 1466 1290 1097 1418 1614 2220 1894 788 684 1030 1204 1326 1593 1329 1146 1787 1864 1548 1560 1764 1864 1827 1843 1671 1694 1707 1846 1637 1519 1545 1491 1435 1347 1333 1341 1320 1410 1495 1504 1551 1547 1571 1625 1676 1672 1676 1650 1596 1554 1500 1530 1532 1552 1657 1681 1604 1554 1622 1579 1531 1501 1449 1303 1229 1108 1093 1243 900 1019 1272 1166 900 672 574 516 483 410 450 403 562 607 714 696 564 288 173 152 213 277 210 206 229 315 531 423 418 327 479 395 413 431 543 589 562 373 329 360 314 222 244 197 400 454 504 470 406 354 222 279 239 249 147 142 282 292 132 207 155 91 84 74 74 74 92 226 251 221 526 445 683 576 770 640 324 263 252 134 151 198 227 156 348 222 324 291 162 130 245 334 537 450 300 187 161 79 109 256 128 53 68 248 473 206 96 104 101 109 187 185 213 312 339 424 274 242 115 67 205 372 377 127 94 77 183 221 158 158 300 273 374 395 298 333 289 370 278 311 224 213 315 185 149 131 137 154 192 109 86 99 136 275 226 339 227 347 755 464 311 398 327 294 156 142 262 321 510 747 344 337 326 453 568 345 175 181 357 369 598 377 95 70 181 141 127 278 439 141 79 97 59 0 3 1 0 1 0 0 0 0 0 0 0 0 0 0 0 0 0 0 0 0 0 0 0 0 0 0 0 0 0 0 0 0 0 0 0 0 0 0 0 0 0 0 1 5 11 19 28 39 92 276 210 275 605 734 1288 1125 1994 2681 2425 2231 1522 808 382 122 108 0 0 0 0 0 0 0 0 0 0 0 0 0 0 0 0 0 0 0 0 0 0 0 0 0 0 0 0 0 0 0 0 0 0 0 0 0 0 0 0 0 0 0 0 0 0 0 0 0 0 0 0 0 0 0 0 0 0 0 0
159 168 188 219 211 250 244 281 336 371 460 507 491 512 509 483 467 452 439 448 466 450 440 437 451 442 458 475 491 496 485 468 418 398 412 411 407 430 447 447 431 414 424 415 421 435 454 479 452 435 460 504 480 458 452 458 446 433 416 408 422 423 415 422 462 455 444 483 485 508 507 509 541 560 533 501 493 479 446 388 380 384 371 369 382 378 362 341 337 359 373 450 466 442 474 574 563 433 396 394 396 400 417 406 381 381 399 409 416 439 456 417 389 382 406 430 455 459 430 428 424 450 485 499 520 584 628 583 541 562 532 572 688 659 688 539 438 392 382 397 425 424 430 438 438 457 472 488 502 481 444 426 451 436 449 446 431 335 321 357 374 364 344 350 362 383 413 426 446 511 551 501 478 506 464 471 574 492 460 467 472 424 385 355 372 471 276 256 257 255 257 251 216 216 197 200 215 223 205 194 160 144 146 141 154 134 139 113 102 92 88 83 76 65 58 53 46 38 33 31 27 27 26 23 18 16 17 16 16 16 16 17 17 16 16 16 16 15 13 13 13 12 12 12 12 12 10 9 9 9 7 8 10 9 9 9 9 8 8 9 12 6 8 8 9 6 7 7 7 8 8 9 9 12 28 46 49 57 117 113 90 145 121 124 143 173 125 152 323 176 360 385 226 444 389 491 372 787 524 491 705 1003 655 1101 723 932 1410 974 1193 1132 1278 1451 1581 1021 1418 1879 1438 1223 909 477 198 205 377 303 213 130 161 227 294 328 403 406 451 490 460 368 275 257 245 271 280 283 351 267 185 182 206 248 210 330 135 89 128 93 101 118 151 173 135 188 199 268 368 389 243 166 183 156 253 569 899 1164 1381 1395 1166 904 1023 1494 1575 1235 961 977 941 1335 1707 1342 1225 1311 1311 1081 1002 902 1665 1586 1602 1142 1085 964 1342 1713 2193 2373 1859 1172 975 999 1208 1563 1489 1760 1795 2132 1826 2214 1816 1938 2268 1868 1158 1234 1078 1421 1425 1637 1597 1898 1452 1324 1573 1848 2121 1526 1313 1702 1560 1163 1082 1250 1607 2257 1945 1271 667 899 1206 1382 1529 1495 1079 1230 1569 1709 1511 1603 1728 1770 1803 1635 1779 1672 1530 1526 1605 1689 1383 1296 1222 1666 1664 1686 1669 1545 1482 1504 1495 1484 1509 1563 1604 1671 1657 1589 1567 1560 1539 1575 1596 1590 1649 1636 1634 1720 1765 1716 1698 1562 1383 1331 1307 1311 1193 1116 1167 1201 1086 1008 955 878 851 563 563 442 410 697 821 930 770 513 480 311 197 154 154 124 149 227 252 405 446 380 364 443 404 370 332 306 419 526 458 280 267 262 211 239 214 333 465 520 470 448 344 228 237 264 318 144 117 220 306 136 102 93 123 119 76 81 117 79 156 285 391 581 657 751 603 490 296 209 358 366 189 114 93 137 140 242 188 332 282 89 129 148 231 481 541 286 176 113 87 101 201 112 60 79 200 178 334 233 233 183 105 124 124 204 311 362 348 375 373 289 173 342 331 252 117 36 31 35 62 81 140 277 367 277 262 413 344 366 571 303 220 169 141 351 176 158 129 118 153 51 112 231 165 222 381 270 481 527 562 670 414 335 282 210 287 155 190 364 657 704 494 152 64 134 542 790 282 234 220 61 161 331 397 160 42 79 119 47 34 125 16 29 19 10 1 14 3 3 0 0 0 0 0 0 0 0 0 0 0 0 0 0 0 0 0 0 0 0 0 0 0 0 0 0 0 0 0 1 0 0 0 0 0 0 0 0 2 5 8 14 22 30 43 71 140 246 426 569 697 1079 991 1597 2122 2541 1545 1163 1033 128 185 21 0 0 0 0 0 0 0 0 0 0 0 0 0 0 0 0 0 0 0 0 0 0 0 0 0 0 0 0 0 0 0 0 0 0 0 0 0 0 0 0 0 0 0 0 0 0 0 0 0 0 0 0 0 0 0 0 0 0 0 0
160 187 187 200 224 296 252 299 332 393 510 515 507 509 504 479 463 444 446 445 461 459 460 446 449 453 450 464 489 509 492 456 420 408 426 426 410 428 448 451 432 419 431 428 435 440 453 472 445 443 463 491 478 460 446 434 428 421 417 413 426 435 423 432 454 461 453 510 504 542 513 537 568 529 517 513 496 479 427 390 393 381 394 403 383 363 350 343 344 356 411 462 460 456 453 447 438 411 417 415 418 428 438 424 400 391 400 421 459 474 492 448 412 389 401 418 442 468 454 441 447 443 457 480 498 532 539 520 587 622 572 585 649 649 642 552 499 425 406 474 432 464 479 467 458 483 516 514 558 602 504 453 465 448 465 503 419 357 379 436 469 464 449 550 520 386 402 418 466 594 529 509 474 454 439 421 415 405 430 410 385 411 393 397 371 314 271 275 277 269 244 209 192 192 187 174 179 194 170 165 152 138 117 128 135 119 119 123 110 97 81 73 69 63 57 53 48 42 39 35 30 24 23 19 17 17 17 14 15 15 16 16 16 15 15 15 15 14 14 13 13 12 11 12 11 10 11 10 11 11 11 4 3 3 7 8 8 7 7 7 12 7 7 8 7 5 7 7 7 8 8 8 22 26 30 40 49 62 103 119 77 173 143 144 153 186 179 209 258 207 283 389 362 462 436 716 562 807 548 574 540 929 694 1074 1072 840 1269 1123 1278 1289 1405 1316 1563 1061 1613 1993 1379 915 1075 614 201 225 547 350 133 139 237 308 298 292 368 368 428 490 415 299 250 237 238 252 215 228 238 212 182 190 186 206 238 463 114 88 88 100 123 131 144 158 180 181 221 284 302 224 184 160 159 315 740 939 927 877 1176 1265 1034 1260 1811 1885 1403 1147 1179 1475 1252 1411 1669 1495 1171 1115 1279 1705 1206 892 1726 1630 1057 1129 1141 951 1667 1925 1730 1619 973 731 1246 1607 1928 1528 1693 2183 2565 1927 1630 2310 2007 2036 2080 1422 1059 1281 1258 1190 1315 1608 1565 1885 1449 1270 1686 1742 1915 1539 1248 1595 1706 1384 1060 1133 1492 1985 1957 1955 1159 688 860 965 1196 1916 1530 1201 1780 1720 1665 1481 1664 1905 1750 1659 1563 1386 1397 1479 1603 1845 1722 1298 1165 1824 2003 2007 1936 1743 1690 1593 1469 1480 1486 1462 1521 1553 1566 1573 1583 1576 1541 1548 1592 1572 1453 1472 1513 1657 1737 1708 1620 1625 1597 1556 1413 1344 1210 1161 1103 1124 1217 1081 969 858 914 914 741 527 456 853 1080 1016 781 546 382 439 413 294 263 219 146 134 147 203 386 476 464 509 529 403 410 349 299 336 352 336 273 214 191 226 244 351 379 519 427 410 367 295 205 243 361 162 119 157 244 119 90 87 89 91 79 99 120 103 80 191 355 627 723 630 267 323 228 389 167 232 322 172 180 125 121 111 211 256 329 167 135 94 222 444 415 313 186 129 107 159 135 74 55 169 237 151 246 184 190 168 128 143 241 205 300 321 290 423 500 298 112 35 16 20 140 40 40 60 47 107 167 154 167 161 548 534 644 314 304 220 111 96 111 215 231 247 303 382 111 68 156 181 193 238 393 399 386 609 491 322 398 469 317 214 168 170 288 427 670 485 378 133 62 69 268 464 477 137 83 72 62 158 253 92 35 25 55 33 15 36 11 9 37 14 6 6 0 0 0 0 0 0 0 0 0 0 0 0 0 0 0 0 0 0 0 0 0 0 0 0 0 0 0 0 0 0 0 1 0 0 0 0 0 0 0 0 0 4 8 14 22 30 45 94 233 542 849 758 1269 2095 1246 1761 1700 2398 1942 1156 390 109 219 4 0 0 0 0 0 0 0 0 0 0 0 0 0 0 0 0 0 0 0 0 0 0 0 0 0 0 0 0 0 0 0 0 0 0 0 0 0 0 0 0 0 0 0 0 0 0 0 0 0 0 0 0 0 0 0 0 0 0 0 0
149 162 163 172 207 315 260 291 324 417 519 533 521 516 509 484 462 449 470 452 463 473 467 449 452 464 456 459 477 502 488 470 433 411 437 432 417 424 437 447 431 424 435 446 450 451 466 488 452 463 482 499 472 470 457 448 440 431 419 413 422 431 430 442 497 461 500 504 518 562 532 561 553 539 540 511 480 435 405 404 393 390 416 416 401 355 354 346 361 403 488 465 529 473 424 407 425 428 428 435 442 500 497 442 400 410 432 434 456 489 531 455 415 394 407 417 432 452 470 468 479 523 508 529 535 588 605 652 691 682 643 621 663 690 691 637 610 523 460 512 536 533 513 497 475 464 474 512 530 566 531 488 526 493 495 519 436 426 500 408 450 487 500 530 625 547 469 472 591 540 513 499 483 481 474 528 553 426 386 366 358 347 341 340 338 307 303 349 348 311 269 236 212 208 194 178 157 151 145 137 140 136 156 116 114 110 101 109 102 102 93 79 64 61 58 56 51 47 38 30 25 22 20 19 16 16 16 16 15 14 15 15 16 14 15 15 14 13 12 11 12 12 11 11 10 10 10 9 10 11 10 7 1 1 6 9 8 7 6 6 6 6 8 7 4 6 7 8 8 9 9 9 14 22 23 37 51 71 81 109 68 162 141 153 170 166 252 227 163 317 194 381 553 527 406 848 587 689 442 597 568 935 723 899 1151 1204 1408 1335 1167 1236 1425 1511 1031 1072 1510 1888 1230 1019 714 486 200 324 606 288 141 155 233 287 258 304 345 367 416 483 386 240 223 221 202 186 187 183 185 189 185 214 202 235 313 498 104 87 102 151 216 218 197 180 144 158 174 274 246 212 186 169 176 367 782 652 512 586 781 866 1059 1529 1982 1610 1240 1159 1464 1473 1335 1496 1398 1321 1001 999 1154 1446 1073 880 1301 1280 1050 1342 1417 1012 1120 1101 944 740 868 1318 1676 1692 1448 1462 1719 2031 2439 1500 1390 1926 2108 1949 1676 1381 1380 1264 1146 1161 1421 1799 1438 1648 1277 1349 1729 2056 1977 1624 1276 1540 1659 1502 1156 1238 1270 1745 2045 2178 1815 1027 724 699 1115 1813 1750 1451 1164 1497 1744 1558 1440 1465 1553 1539 1423 1330 1389 1362 1374 1643 1668 1369 1190 1458 1999 2401 2254 2018 1805 1601 1504 1503 1529 1486 1473 1531 1544 1591 1596 1575 1529 1553 1617 1633 1510 1252 1340 1386 1587 1500 1440 1565 1597 1594 1536 1450 1328 1262 1112 895 1041 963 773 737 780 895 700 451 692 1048 1012 816 654 488 555 558 572 577 538 504 272 125 122 127 176 327 372 564 592 472 368 346 342 347 291 358 309 239 196 225 263 309 334 481 464 404 341 323 188 217 307 139 107 109 130 96 100 101 91 92 109 127 122 100 69 104 206 261 498 271 212 178 167 198 51 46 163 198 202 169 74 95 172 217 313 351 192 153 108 248 162 193 174 190 109 207 167 78 110 209 234 334 186 198 232 358 138 130 151 148 417 402 418 251 289 45 10 9 14 16 33 51 110 122 37 69 178 235 131 289 470 725 462 312 224 301 209 106 77 76 168 424 563 400 77 68 165 272 450 363 296 353 259 293 359 283 264 240 232 188 179 230 386 886 742 720 478 136 86 54 44 178 164 151 58 11 17 61 85 167 23 11 16 142 136 12 5 2 7 15 0 0 0 0 0 0 0 0 0 0 0 0 0 0 0 0 0 0 0 0 0 0 0 0 0 0 0 0 0 0 0 0 5 6 1 0 0 0 0 0 0 0 2 5 8 14 20 33 60 174 383 960 1468 1140 1385 2165 1622 2641 2170 2331 2004 1140 304 182 215 0 0 0 0 0 0 0 0 0 0 0 0 0 0 0 0 0 0 0 0 0 0 0 0 0 0 0 0 0 0 0 0 0 0 0 0 0 0 0 0 0 0 0 0 0 0 0 0 0 0 0 0 0 0 0 0 0 0 0 0 0
148 164 190 180 196 252 287 287 343 371 468 539 534 523 507 493 465 456 477 458 472 486 475 453 464 479 478 458 472 488 479 456 434 418 440 450 431 423 439 449 435 432 445 459 459 462 470 457 452 477 499 491 482 487 492 457 441 430 422 417 421 430 438 476 501 478 520 508 518 557 558 566 572 552 513 480 469 417 420 412 400 418 395 377 366 353 359 350 377 422 453 407 438 401 399 423 421 428 436 486 515 499 450 416 414 433 445 428 449 495 500 466 442 406 415 442 457 485 496 514 537 548 551 567 612 684 702 719 754 738 710 695 704 797 739 691 634 620 509 433 555 647 584 565 533 586 639 593 617 659 600 601 540 516 499 588 831 734 591 522 605 734 652 542 630 705 749 833 805 695 622 600 610 623 599 587 632 628 457 472 479 420 407 353 334 329 360 412 374 338 273 251 231 212 199 185 166 161 162 164 155 147 174 139 123 119 99 88 84 83 99 82 73 64 55 51 43 39 35 31 27 26 22 17 16 15 14 15 17 15 13 12 14 14 14 13 13 13 12 11 11 10 10 9 10 10 9 11 9 10 11 11 8 5 2 6 8 6 6 7 6 6 6 4 6 6 7 8 8 9 11 10 13 40 34 37 46 57 57 95 58 139 129 121 144 162 223 197 143 295 203 289 479 591 351 709 537 631 426 722 649 1221 732 840 1106 1135 1288 1350 1159 1275 1542 1297 1049 1408 1772 1508 902 670 527 343 228 513 471 313 234 134 191 224 288 335 368 392 467 487 371 256 243 223 209 176 181 190 189 194 196 211 230 256 327 398 94 123 341 264 188 194 241 177 152 179 159 197 199 191 187 196 275 500 526 463 480 797 1329 988 1092 1554 1674 1200 1133 1181 1313 1223 1303 1578 1546 1122 963 1058 1210 1156 990 1316 971 1226 1252 1527 1572 1028 902 585 567 886 1546 1791 1227 1143 1239 1628 2170 2355 1833 1329 1278 1616 1922 1836 1535 1516 1238 1277 1139 1203 1400 1754 1434 1151 1530 1760 1847 2142 2176 1666 1201 1280 1482 1644 1172 1261 1188 1334 1675 2107 1749 1649 1079 562 622 1158 1242 1579 1484 1375 1575 1304 1404 1557 1554 1497 1367 1360 1603 1704 1705 1390 1291 1520 1326 1325 1584 1811 2186 2155 1859 1691 1640 1523 1472 1462 1442 1488 1594 1642 1668 1548 1598 1662 1647 1577 1474 1461 1398 1253 1286 1433 1371 1350 1594 1549 1565 1563 1491 1418 1159 990 850 924 936 873 762 956 672 711 856 1187 825 729 660 776 777 691 670 787 732 639 453 278 162 137 126 129 202 290 526 467 482 453 354 352 320 315 293 338 213 246 261 289 287 438 480 393 288 250 209 145 238 202 105 95 234 186 169 99 108 110 137 167 122 116 77 80 152 140 436 487 326 60 38 33 34 34 36 139 165 133 89 114 110 233 328 185 210 109 68 116 67 63 109 275 198 148 173 104 83 181 420 488 195 184 216 268 226 129 72 233 265 298 257 143 84 76 22 12 14 37 78 152 199 162 73 52 42 39 75 165 459 658 468 100 153 102 165 115 89 181 80 365 244 104 55 127 157 249 471 310 418 246 243 313 430 338 246 222 199 186 266 278 548 635 751 606 327 98 51 26 7 37 26 13 8 8 10 10 17 41 2 6 5 21 6 4 3 13 22 2 0 0 0 0 0 0 0 0 0 0 0 0 0 0 0 0 0 0 0 0 0 0 0 0 0 0 0 0 0 0 0 3 7 8 8 0 0 0 0 0 0 0 1 4 9 12 19 40 110 473 683 1062 1685 1622 1331 2393 1993 2719 2832 2734 1638 776 264 261 56 0 0 0 0 0 0 0 0 0 0 0 0 0 0 0 0 0 0 0 0 0 0 0 0 0 0 0 0 0 0 0 0 0 0 0 0 0 0 0 0 0 0 0 0 0 0 0 0 0 0 0 0 0 0 0 0 0 0 0 0 0
176 185 226 195 207 277 275 316 345 391 411 504 537 517 494 477 466 459 479 465 473 490 478 461 459 491 489 472 472 475 491 490 461 435 435 462 437 426 440 452 441 438 444 465 473 477 470 454 454 464 482 495 482 466 463 457 441 429 422 427 422 427 439 474 527 523 515 535 535 568 587 583 590 555 498 490 442 446 477 430 419 429 413 396 364 379 377 430 377 457 491 404 383 381 385 396 400 411 412 454 453 465 444 444 475 472 476 455 466 487 492 470 427 448 417 448 459 504 545 533 532 515 541 637 673 685 764 793 791 798 783 730 720 818 851 758 649 583 484 490 501 524 541 614 595 622 643 643 699 714 704 765 758 600 524 548 652 1000 1010 642 714 899 761 542 576 786 740 877 716 671 669 664 682 688 664 664 657 655 617 612 624 705 587 415 361 346 378 510 434 371 312 273 243 222 202 187 182 181 187 190 175 175 172 174 163 137 107 93 86 76 83 87 68 59 54 49 43 36 34 30 29 26 21 17 15 14 14 13 14 14 14 13 11 11 13 13 12 12 12 12 11 10 9 9 10 10 9 10 9 10 9 8 9 9 7 1 4 7 7 7 7 7 7 4 5 6 7 7 8 9 11 12 11 28 37 29 32 30 40 84 46 80 149 103 121 156 146 155 156 203 171 209 459 503 433 633 442 722 524 809 900 1341 735 812 1163 1223 1202 1381 1111 1211 1281 1507 999 1273 1995 1306 953 635 188 183 276 450 347 343 180 163 214 263 313 372 392 418 469 446 309 246 247 242 220 171 169 182 191 194 219 209 230 246 302 365 85 115 236 162 148 236 202 166 158 129 149 183 335 184 218 259 464 654 397 765 1019 1286 1335 1117 1363 1690 1330 1060 1077 1260 1380 1321 1429 1729 1597 1169 995 1346 1386 1186 1244 1020 1448 1605 1263 1279 1011 783 644 657 809 1297 2113 1619 1107 1169 1391 1590 2022 1850 1396 1152 1383 1863 2042 1806 1283 1244 1417 1517 1160 1416 1493 1569 1338 1015 1382 1615 1678 1807 2274 1681 1308 1338 1384 1772 1319 1142 1229 1169 1406 1834 1863 1749 1293 1322 800 664 1010 1385 1599 1218 1745 1675 1585 1680 1705 1546 1495 1527 1885 1922 1904 1758 1327 1291 1352 1310 1472 2035 1897 1914 1959 1897 1766 1589 1544 1437 1381 1422 1559 1662 1673 1520 1548 1500 1509 1381 1461 1556 1295 1218 1131 1155 1035 995 1176 1321 1490 1542 1554 1486 1332 1154 980 1002 1052 978 766 704 840 784 955 1166 948 891 941 1003 930 885 817 926 765 671 503 420 265 190 255 252 163 172 472 358 473 502 343 325 312 297 331 246 241 246 242 294 246 485 986 637 195 202 171 125 171 241 108 96 129 259 175 110 145 194 142 164 124 139 109 62 174 287 462 565 224 40 36 37 60 33 35 32 41 108 52 61 99 197 193 132 111 168 130 87 53 69 174 215 107 90 88 98 75 235 495 618 340 238 213 310 492 205 156 174 170 209 64 31 121 95 122 11 33 77 176 212 136 230 163 85 49 42 104 264 119 250 218 51 180 175 302 223 155 123 73 169 72 37 44 45 66 137 252 195 223 142 186 413 348 293 242 228 239 404 468 380 419 481 485 221 64 35 23 7 7 7 5 7 40 16 6 9 15 3 3 18 2 3 0 0 0 0 0 0 0 0 0 0 0 0 0 0 0 0 0 0 0 0 0 0 0 0 0 0 0 0 0 0 0 0 0 0 0 0 0 1 2 9 2 0 0 0 0 0 0 0 1 3 8 14 23 55 114 489 996 1141 1818 1692 1726 2302 2536 2913 2578 1779 1488 640 223 384 30 0 0 0 0 0 0 0 0 0 0 0 0 0 0 0 0 0 0 0 0 0 0 0 0 0 0 0 0 0 0 0 0 0 0 0 0 0 0 0 0 0 0 0 0 0 0 0 0 0 0 0 0 0 0 0 0 0 0 0 0 0
185 197 209 207 220 336 297 302 375 422 471 466 541 521 494 482 471 476 489 483 467 485 481 464 471 503 503 494 487 478 492 495 472 441 440 454 438 433 452 453 442 447 458 475 484 470 458 456 469 483 501 504 485 465 462 447 449 433 427 444 431 427 446 514 544 530 520 548 543 568 595 597 594 548 527 476 457 482 463 451 436 408 393 372 395 418 391 467 526 589 547 383 396 380 378 383 396 392 399 412 428 511 462 454 507 513 534 535 477 461 445 444 438 464 426 422 442 473 479 477 488 499 526 568 598 616 643 684 726 817 816 777 781 751 751 690 627 507 468 465 580 636 544 541 564 573 590 642 688 657 650 865 1032 709 656 758 931 1051 822 615 653 831 837 594 717 803 857 811 675 649 654 662 682 669 682 690 694 694 654 635 621 604 597 547 429 333 310 315 372 417 352 286 247 241 226 213 213 208 212 198 175 168 161 161 153 143 129 114 103 85 70 66 67 70 65 65 52 41 41 37 32 27 21 14 13 12 15 13 13 14 13 12 12 12 12 12 13 13 11 11 10 8 8 8 10 10 10 9 8 9 7 7 8 9 9 4 1 2 5 4 6 7 6 4 6 6 8 8 8 9 11 15 14 15 26 37 29 34 61 89 66 65 128 103 111 157 114 110 170 172 213 154 411 394 516 716 510 806 943 857 821 1080 1083 803 939 1172 1135 1340 1062 1197 1256 1041 928 1507 1826 1357 967 618 334 147 324 400 351 212 170 210 284 315 328 330 366 423 463 372 312 219 221 209 198 171 164 171 183 194 212 239 259 248 326 300 92 106 133 148 185 219 206 172 154 138 142 207 228 210 364 404 606 456 870 1014 1211 1439 1355 1349 1399 1325 1033 948 1160 1410 1386 1398 1557 1655 1407 1265 1183 1448 1409 1430 1362 973 1447 1052 678 609 900 1334 842 895 1240 2012 2053 1332 1140 1266 1575 1735 1725 1517 1170 1240 1618 2152 2270 1612 1299 1698 1809 1348 1162 1583 1486 1353 1193 1102 1506 1689 1454 1713 2196 1991 1689 1490 1297 1578 1347 1076 1421 1309 1436 1488 1719 1647 1505 1761 1534 1040 732 896 1409 1186 1637 1968 2103 1929 1912 1832 1625 1729 2148 2027 2144 1879 1509 1414 1318 1305 1386 2029 1957 1927 1939 2071 1974 1789 1714 1577 1463 1374 1462 1571 1602 1565 1527 1343 1396 1341 1395 1432 1427 1428 1318 1334 1321 1268 1265 1107 1093 1484 1537 1467 1246 1248 1219 1154 1082 1087 982 695 894 1014 945 950 1001 1028 982 1025 943 893 869 815 684 574 532 430 338 343 347 388 260 147 348 397 296 467 331 266 329 334 334 241 254 287 221 212 231 225 794 1067 342 142 144 131 154 178 127 98 103 183 170 117 186 308 165 134 153 166 122 88 125 202 304 328 120 42 41 50 76 40 39 31 34 66 61 41 58 111 116 122 60 105 129 56 60 87 84 78 104 174 276 241 243 347 412 441 420 222 180 476 533 186 121 157 143 202 30 26 58 37 26 18 22 45 47 25 26 42 88 52 64 223 240 70 41 94 66 92 84 166 254 375 338 196 80 34 30 59 67 140 189 138 143 113 106 134 197 321 275 246 251 376 477 498 332 338 168 134 94 91 36 11 16 20 62 43 14 4 73 83 9 6 6 3 1 48 36 111 5 0 0 0 0 0 0 0 0 0 0 0 0 0 0 0 0 0 0 0 0 0 0 0 0 0 0 0 0 0 0 0 0 0 0 0 0 0 3 0 0 0 0 0 0 0 0 0 1 4 9 16 27 55 131 410 881 1255 1580 2178 2431 3143 3000 2509 2688 2102 886 315 198 300 6 0 0 0 0 0 0 0 0 0 0 0 0 0 0 0 0 0 0 0 0 0 0 0 0 0 0 0 0 0 0 0 0 0 0 0 0 0 0 0 0 0 0 0 0 0 0 0 0 0 0 0 0 0 0 0 0 0 0 0 0 0
202 187 209 243 286 372 329 327 335 431 448 476 511 520 507 492 476 488 501 484 474 494 485 470 477 493 501 514 499 484 491 501 485 462 459 476 442 444 466 459 448 447 460 472 479 463 463 468 479 499 520 504 483 479 485 465 481 436 433 447 452 432 443 487 536 531 541 546 561 544 580 589 559 538 511 503 488 455 437 428 416 413 390 379 434 427 398 461 559 509 370 370 390 374 382 387 393 407 406 422 447 519 462 478 505 569 641 579 468 452 453 464 472 487 449 427 429 449 468 484 503 518 574 656 605 592 575 593 632 691 723 693 699 715 740 726 647 549 525 519 539 550 535 528 550 569 569 591 623 609 657 887 1049 815 918 917 1094 1089 834 657 666 913 897 641 862 943 885 671 648 642 670 676 691 686 684 691 698 717 667 636 614 602 572 559 548 482 351 289 268 299 306 289 275 271 256 243 251 242 233 196 176 154 147 137 141 136 125 115 106 103 82 64 59 59 60 54 49 43 42 35 31 27 22 17 15 11 13 14 13 14 14 12 11 13 11 12 12 11 12 11 11 9 7 7 7 8 9 9 9 8 8 7 6 7 8 8 7 7 6 2 0 2 3 4 6 6 7 8 8 10 10 15 16 12 22 53 53 46 57 88 85 62 88 127 99 141 99 92 124 121 224 113 326 349 546 504 478 768 1014 765 806 998 936 897 954 1112 1031 1150 1042 1355 1377 995 1207 1172 1722 1110 721 412 249 146 231 368 413 150 147 197 297 337 366 361 424 411 492 412 318 249 216 184 174 157 156 169 185 192 221 254 289 272 356 242 104 243 326 269 223 203 187 186 157 142 175 182 244 375 333 386 539 978 1209 1358 1644 1623 1347 1228 1020 872 952 952 1218 1384 1412 1459 1437 1408 980 967 1092 967 974 1163 1228 805 624 634 725 1026 1562 1459 1074 1004 1736 2280 1526 1336 1174 1378 1360 1529 1272 1207 1211 1723 2229 2207 1851 1144 1550 1602 1621 1251 1135 1581 1304 1188 1150 1446 1906 1377 1360 1345 1656 2026 1679 1540 1250 1527 1406 1045 1408 1558 1411 1429 1541 1648 1940 1781 1928 1740 1134 984 710 890 1343 1289 1848 1920 1850 1819 1639 1922 1859 1465 2091 2127 1859 1691 1309 1299 1315 1781 1848 1908 1994 1976 1965 2032 2243 1994 1726 1486 1384 1359 1517 1597 1522 1496 1421 1513 1514 1517 1502 1365 1236 1464 1502 1592 1444 1308 1087 1215 1493 1402 1072 1025 1242 1126 1098 1075 1220 1003 867 1031 959 913 901 987 975 961 840 770 719 658 703 656 455 356 353 476 429 352 283 227 196 303 331 328 320 207 230 262 275 255 224 194 150 146 159 209 263 935 813 180 140 111 102 103 113 94 100 102 143 149 160 162 161 169 174 176 210 119 253 234 341 322 376 41 53 75 131 59 46 37 38 61 90 76 100 87 59 48 53 72 63 40 65 162 215 76 103 145 112 150 555 464 577 444 379 111 306 411 361 229 186 147 61 94 27 29 147 52 7 7 18 50 27 8 10 15 19 31 63 120 122 104 42 24 63 188 190 166 181 337 140 74 40 27 31 38 96 161 153 87 75 93 129 319 417 418 352 279 355 548 736 349 422 221 108 152 103 90 48 15 22 36 113 139 103 42 3 16 25 7 4 3 0 57 49 95 12 0 0 0 0 0 0 0 0 0 0 0 0 0 0 0 0 0 0 0 0 0 0 0 0 0 0 0 0 0 0 0 0 0 0 1 0 1 1 0 0 0 0 0 0 0 0 0 1 4 10 17 28 74 185 591 870 1271 1806 1708 2317 2577 2555 1805 1801 1619 819 150 621 235 0 0 0 0 0 0 0 0 0 0 0 0 0 0 0 0 0 0 0 0 0 0 0 0 0 0 0 0 0 0 0 0 0 0 0 0 0 0 0 0 0 0 0 0 0 0 0 0 0 0 0 0 0 0 0 0 0 0 0 0 0 0
263 209 218 253 352 388 377 357 354 335 381 401 466 469 489 489 486 500 514 495 480 488 496 479 489 478 500 511 507 490 495 510 475 466 479 481 455 448 471 464 450 456 465 482 478 466 473 473 482 502 515 500 488 495 501 508 488 443 456 459 456 441 444 472 558 548 540 499 461 419 438 502 517 506 496 503 471 446 429 419 433 451 440 395 421 452 465 516 485 390 372 373 374 376 387 416 429 444 424 430 470 573 505 578 608 668 578 499 495 492 468 499 585 511 467 446 454 439 462 504 488 509 542 551 577 577 558 585 600 602 619 638 674 692 680 644 639 617 540 513 515 535 552 534 534 541 549 563 590 634 652 687 804 820 871 977 1043 1034 985 824 836 1014 1006 674 738 851 746 644 634 655 689 699 718 698 690 708 708 711 671 632 615 570 514 468 405 375 330 262 262 307 340 301 273 253 241 246 240 239 230 220 192 168 151 132 132 123 111 116 100 87 77 65 58 53 52 51 47 42 37 33 28 24 21 18 15 13 11 9 11 13 12 12 12 12 11 10 12 12 11 11 10 10 9 8 7 8 8 8 9 8 8 8 7 7 7 7 8 9 8 8 4 0 4 3 6 7 7 8 9 10 10 11 13 10 16 41 52 51 43 60 89 89 79 135 80 144 78 123 85 122 166 122 284 331 576 519 505 473 878 802 899 1044 826 1061 1068 872 1104 947 1000 1547 1401 894 1465 1660 1902 1265 957 359 137 144 231 394 398 127 148 219 289 383 447 451 519 500 517 375 272 252 217 182 162 154 166 174 176 192 237 242 288 243 292 206 111 355 508 415 239 198 179 168 138 154 202 289 419 427 570 727 1196 1696 1675 1690 1694 1318 1063 775 823 940 916 971 1153 1240 1186 1040 809 859 725 769 1019 1056 1243 1268 1142 1054 1013 706 1029 1624 2030 1587 1080 1190 1702 2131 1766 1564 1363 1172 1426 1340 1424 1182 1473 2075 2392 1906 1416 1150 1598 1382 1413 1253 1151 1272 1075 1391 1592 1963 1751 1371 1153 1343 1915 1927 1668 1308 1222 1545 1500 1185 1068 1587 1386 1358 1533 1678 1796 1970 2138 1911 1552 1648 1199 1021 728 672 654 991 1396 1745 1478 1378 1407 1336 1872 1777 2028 2480 1699 1375 1325 1593 1715 1745 1783 1769 1849 2089 2341 2231 1786 1637 1570 1416 1320 1469 1551 1540 1438 1339 1405 1344 1266 1185 912 1236 1391 1610 1654 1484 1378 1082 1440 1434 1159 854 1017 997 1163 1000 1229 1097 972 974 945 955 888 873 930 905 800 720 715 681 574 504 374 384 429 486 393 452 409 386 403 210 154 154 202 200 254 245 255 192 191 150 140 134 139 159 205 308 554 358 156 129 105 100 96 89 98 104 147 155 157 161 183 152 194 211 124 271 108 112 86 82 183 41 68 82 86 99 115 49 74 179 177 210 114 53 55 60 61 77 114 67 53 177 141 101 48 111 231 337 358 370 282 231 277 116 148 144 144 111 204 224 172 69 47 18 93 19 5 5 35 6 3 5 7 12 57 66 60 57 47 187 119 40 209 315 295 76 190 277 119 240 285 54 61 128 99 142 132 309 167 152 180 500 634 317 395 349 493 735 543 337 236 139 397 419 269 54 37 70 14 85 34 7 17 118 30 4 15 13 3 0 0 0 0 0 0 0 0 0 0 0 0 0 0 0 0 0 0 0 0 0 0 0 0 0 0 0 0 0 0 0 0 0 0 0 0 0 0 0 0 0 0 1 3 0 0 0 0 0 0 0 0 0 1 4 9 17 32 150 577 595 641 1166 1460 1890 2067 2573 2719 2126 1676 960 572 256 635 92 0 0 0 0 0 0 0 0 0 0 0 0 0 0 0 0 0 0 0 0 0 0 0 0 0 0 0 0 0 0 0 0 0 0 0 0 0 0 0 0 0 0 0 0 0 0 0 0 0 0 0 0 0 0 0 0 0 0 0 0 0 0
251 214 236 259 261 389 405 374 401 361 353 373 409 447 457 477 498 532 524 509 488 479 499 489 501 483 482 498 513 500 493 503 496 481 494 483 454 454 474 467 453 464 473 484 480 469 481 489 497 509 518 516 502 488 480 479 469 460 452 479 482 446 451 490 523 503 420 381 357 363 378 408 417 432 433 446 432 428 430 443 478 472 433 399 448 495 479 417 368 374 377 377 379 384 404 448 490 513 490 485 542 569 549 607 628 695 571 585 731 695 538 568 699 558 489 469 477 453 454 467 476 504 518 533 554 560 543 556 559 528 528 558 605 586 563 569 569 547 530 526 526 541 558 547 546 554 570 598 640 659 689 692 826 838 881 854 872 873 906 793 861 927 1012 727 833 726 647 623 636 656 667 678 695 702 697 697 720 697 657 643 648 628 513 366 304 269 252 239 281 328 440 441 315 282 248 227 218 215 211 207 203 172 148 132 114 122 106 96 101 95 89 82 70 54 47 44 41 38 37 34 30 26 23 20 16 14 12 9 12 13 13 13 11 11 10 9 11 11 11 11 10 9 9 9 7 8 7 7 7 8 7 7 6 5 6 7 7 7 8 8 8 9 6 3 5 9 8 8 8 10 9 10 11 11 10 37 32 32 34 42 71 95 58 111 72 132 85 94 73 128 121 155 133 424 687 504 578 570 780 710 737 779 748 987 910 903 1227 1192 1215 1648 2021 1023 1227 1583 1845 1198 775 607 122 121 233 406 346 132 143 219 330 435 415 458 518 467 432 339 280 226 209 192 169 151 160 162 175 197 232 257 275 217 222 175 99 175 357 366 238 199 189 176 150 197 233 369 538 1102 1004 893 1352 1558 1519 1839 1617 1129 881 780 977 848 795 904 789 770 733 647 693 858 1068 1238 1371 1416 1435 1011 1082 956 944 839 1448 1354 1501 1114 902 951 1576 1796 1499 1770 1412 1293 1661 1818 1437 1281 1761 1585 1493 1592 1511 1026 1236 1601 1431 1279 1396 1394 1112 1192 1370 1783 1464 1238 1131 1144 1411 1790 1422 1159 1199 1265 1515 1377 1047 1192 1415 1213 1366 1506 1537 1688 1985 1883 1848 1917 2056 1829 1180 1126 863 816 722 653 597 765 1087 1262 1487 1909 2080 2295 1853 1649 1655 1665 1793 1604 1687 1594 1631 1970 1725 1912 1824 1770 1691 1512 1352 1352 1425 1398 1308 1231 1278 1094 993 876 703 837 1044 1529 1612 1574 1408 1169 1013 1466 1204 719 826 1074 1212 817 1094 1077 951 968 920 921 939 871 841 847 920 846 734 689 520 519 484 493 508 506 510 481 451 410 434 343 162 118 140 216 273 471 321 207 124 131 142 142 157 152 140 193 280 565 174 142 119 104 95 90 96 110 111 138 168 140 109 149 279 162 162 197 47 46 51 40 41 45 85 104 120 135 90 118 154 101 166 118 101 69 60 132 117 106 105 120 75 103 84 59 52 64 171 206 134 85 107 186 281 126 64 169 237 119 247 456 282 311 181 27 5 6 9 5 11 17 1 3 5 42 133 159 92 33 25 25 40 29 100 365 499 61 71 75 170 590 450 92 34 73 118 153 260 304 372 230 188 334 295 187 252 386 685 713 433 230 113 169 450 442 391 141 145 136 57 18 8 5 5 51 73 39 35 25 8 0 0 0 0 0 0 0 2 0 0 0 0 0 0 0 0 0 0 0 0 0 0 0 0 0 0 0 0 0 0 0 0 0 0 0 0 0 0 0 0 0 0 0 1 0 2 0 0 0 0 0 0 1 2 4 9 17 65 191 547 416 579 1040 1747 1344 1957 2594 2890 2333 1671 973 296 348 262 2 0 0 0 0 0 0 0 0 0 0 0 0 0 0 0 0 0 0 0 0 0 0 0 0 0 0 0 0 0 0 0 0 0 0 0 0 0 0 0 0 0 0 0 0 0 0 0 0 0 0 0 0 0 0 0 0 0 0 0 0 0 0
256 232 255 297 270 327 409 407 419 371 356 379 415 412 435 467 497 524 522 513 487 482 493 496 493 502 484 499 517 509 501 502 510 505 498 513 461 458 476 462 459 467 477 484 475 477 487 500 518 518 516 518 515 483 463 445 441 477 479 456 432 398 422 452 472 412 367 350 342 347 352 367 405 425 392 395 388 409 437 484 523 484 459 477 465 400 361 367 373 378 381 382 385 396 409 433 479 522 561 549 571 571 573 595 625 674 747 771 832 824 713 611 636 701 569 512 493 471 478 467 467 492 509 533 515 535 527 551 543 472 506 616 631 534 524 542 565 545 545 539 532 543 559 568 569 559 583 621 633 694 834 823 965 920 890 915 890 878 912 858 734 756 950 772 808 678 649 641 604 610 630 643 660 668 622 645 686 664 626 607 598 561 436 345 313 277 246 226 223 244 332 511 482 359 262 255 249 229 214 191 199 174 148 132 118 107 97 82 74 80 81 80 78 72 52 45 41 38 35 33 30 27 23 21 18 15 12 11 10 10 11 12 12 11 10 10 11 10 10 9 10 9 7 8 7 7 8 8 7 7 5 5 4 5 6 6 6 6 7 8 8 9 8 5 7 9 10 8 8 9 8 8 9 10 9 28 16 21 48 36 55 100 72 103 77 88 116 65 95 97 91 174 107 386 713 571 556 622 767 575 635 716 791 1012 822 936 1221 1224 1015 1794 1776 1138 990 1242 1803 1190 682 331 138 111 212 286 250 147 182 245 356 347 387 461 478 390 420 331 260 245 220 188 166 147 162 173 177 192 229 308 234 196 181 144 93 155 347 379 227 208 190 171 221 299 322 669 654 1099 1171 845 984 1349 1333 1517 1160 891 771 833 801 741 697 670 691 795 709 807 1081 1252 1409 1560 1358 1070 633 712 883 743 720 779 1325 971 832 730 1007 1218 1695 1640 1411 1815 1673 1386 1591 1748 1513 1402 1336 1258 1679 1299 1099 1204 1489 1679 1387 1329 1437 1500 1365 1050 1318 1540 1327 1153 1088 1124 1243 1678 1398 1342 1240 1071 1500 1662 1326 1054 1374 1295 1189 1470 1220 1827 2007 1950 1907 2006 2056 1799 1939 1786 1511 1913 1364 1035 807 540 596 853 1467 1974 1879 1998 1817 1692 1852 1783 1604 1665 1563 1572 1539 1764 1387 1816 1851 1753 1729 1566 1418 1510 1390 1232 1432 1379 1242 1349 1444 1036 663 675 741 1080 1431 1485 1377 1375 1143 1044 1136 808 779 814 1097 881 779 1081 989 972 955 928 882 868 852 839 841 706 641 629 627 591 567 545 577 574 539 505 455 473 465 402 273 153 139 196 300 422 264 161 125 135 130 130 134 133 185 302 325 478 364 178 134 115 102 94 96 101 117 125 121 140 117 376 286 178 232 72 47 56 44 43 46 50 72 185 157 100 136 182 120 168 166 161 71 70 186 204 213 139 120 147 114 153 169 86 53 51 112 131 69 51 143 390 293 79 106 153 77 148 182 288 179 70 3 6 4 19 4 5 4 4 0 2 28 80 126 89 112 60 51 13 13 7 27 47 31 26 77 113 90 164 91 61 48 23 86 300 375 339 345 149 179 433 343 177 197 309 454 317 179 86 173 428 423 189 133 91 90 406 338 214 81 23 9 5 4 6 21 2 10 0 0 0 0 0 0 0 0 0 0 0 0 0 0 0 0 0 0 0 0 0 0 0 0 0 0 0 0 0 0 0 0 0 0 0 0 0 0 0 0 0 4 2 0 0 0 0 0 0 0 0 0 1 4 4 8 29 92 201 277 580 703 1235 1230 1504 2700 1889 1720 2143 1742 888 327 719 69 0 0 0 0 0 0 0 0 0 0 0 0 0 0 0 0 0 0 0 0 0 0 0 0 0 0 0 0 0 0 0 0 0 0 0 0 0 0 0 0 0 0 0 0 0 0 0 0 0 0 0 0 0 0 0 0 0 0 0 0 0 0 0
266 243 236 279 313 323 409 407 424 392 368 378 384 401 438 463 483 522 517 497 488 491 490 497 492 500 490 503 520 516 510 515 515 519 517 481 456 470 480 467 470 478 488 480 482 491 509 516 527 524 533 527 484 460 453 443 454 479 489 463 392 367 373 404 421 389 357 346 337 344 368 392 410 384 345 347 342 343 349 374 517 547 529 455 372 361 360 367 375 379 377 384 402 417 447 441 439 469 483 563 613 610 648 681 687 677 741 768 799 855 883 808 672 727 821 622 511 497 501 496 482 489 498 499 513 518 535 532 502 451 490 556 530 503 477 499 561 537 548 578 558 544 562 617 599 589 682 676 693 665 863 976 1024 965 925 929 928 841 869 782 759 733 760 819 843 695 624 605 588 611 628 630 618 634 593 614 651 639 601 545 504 457 373 300 271 256 239 221 204 216 234 342 401 293 248 254 234 217 210 185 177 178 154 151 141 121 117 103 84 68 66 62 57 53 47 43 42 37 36 32 29 27 25 22 19 15 13 11 11 8 11 12 11 10 11 11 11 9 9 9 10 10 9 9 6 6 8 6 7 6 6 4 4 4 4 5 7 6 6 7 7 8 7 2 7 9 10 10 9 9 8 7 8 10 9 27 13 12 51 62 52 79 91 56 112 71 113 67 77 55 110 146 141 265 436 552 435 600 725 638 619 753 1082 1052 806 1076 1401 1018 999 1569 1777 1185 1005 1682 1815 995 544 223 133 113 251 409 303 149 165 220 310 324 325 366 328 333 434 377 285 237 217 189 158 136 139 158 163 178 209 224 241 210 183 124 96 140 320 258 209 198 170 175 182 240 291 352 425 513 612 635 1088 1510 1205 1138 1081 837 666 676 602 615 666 813 806 873 785 1021 1396 1422 1513 1248 1061 550 640 756 836 1085 1046 938 1177 725 696 768 1266 1423 1907 1522 1453 1946 1962 1656 1559 1823 2118 1750 1314 1241 1794 1992 1540 1233 1216 1290 1199 1245 1436 1435 1298 1056 1410 1329 1164 1052 1181 1421 1454 1632 1450 1525 1180 1125 1560 1480 1542 1017 1202 1152 1316 1443 1130 1320 1822 1789 1785 1828 1572 1500 1588 1666 1636 1815 1546 1261 1327 1026 766 643 663 1319 1504 1500 1519 1528 1658 1631 1534 1588 1516 1089 1615 1794 1285 1446 1580 1714 1671 1590 1479 1520 1370 1071 1289 1582 1383 1234 1805 1428 989 993 742 789 840 1327 1226 1145 1291 1133 894 771 581 871 1051 670 708 1005 972 1011 983 946 886 845 787 808 808 778 708 688 606 589 582 631 564 504 537 508 447 468 441 411 322 212 143 113 173 298 183 111 125 118 111 113 113 123 152 279 473 424 284 264 285 232 110 100 103 123 265 460 273 86 87 281 294 116 50 44 59 73 47 49 54 71 111 161 137 159 190 115 104 147 118 82 115 138 171 263 388 292 198 178 147 296 292 127 90 107 131 126 38 48 182 119 187 134 78 117 87 95 99 327 194 70 40 57 30 12 5 7 20 8 5 6 42 23 26 31 45 25 6 3 2 2 2 4 7 9 92 38 37 35 15 14 19 34 108 138 450 642 388 145 168 358 175 250 355 112 59 173 91 55 135 335 444 143 138 70 94 275 329 316 288 187 168 49 12 1 6 0 0 0 0 0 0 0 0 0 0 0 0 0 0 0 0 0 0 0 0 0 0 0 0 0 0 0 0 0 0 0 0 0 0 0 0 0 0 0 0 0 0 0 0 0 0 0 0 0 0 0 0 0 0 1 4 8 12 28 80 118 351 464 835 1058 1024 2044 2569 2110 1290 1056 919 397 541 863 76 0 0 0 0 0 0 0 0 0 0 0 0 0 0 0 0 0 0 0 0 0 0 0 0 0 0 0 0 0 0 0 0 0 0 0 0 0 0 0 0 0 0 0 0 0 0 0 0 0 0 0 0 0 0 0 0 0 0 0 0 0 0 0
266 261 243 268 326 387 393 351 386 410 384 390 408 428 422 441 471 508 504 497 496 500 492 499 500 513 497 494 509 524 522 523 527 527 506 469 470 478 482 480 487 490 486 488 493 496 516 532 528 529 523 549 473 452 448 452 490 463 442 428 390 357 347 436 381 351 342 330 328 330 331 332 333 334 330 334 337 342 349 362 370 376 373 358 356 358 367 362 362 375 396 399 413 395 413 445 449 468 510 574 635 645 688 715 703 699 766 718 720 779 816 938 874 741 743 742 586 606 640 539 503 495 498 501 498 505 519 520 485 439 424 445 481 493 442 441 487 508 515 549 564 554 554 588 586 626 701 708 711 772 896 1081 1072 964 873 935 945 827 908 935 820 707 714 769 846 773 619 599 580 579 603 619 571 572 566 592 620 628 616 576 568 517 406 322 279 260 262 237 205 198 207 231 256 273 244 222 210 201 188 196 166 158 162 132 122 115 100 103 88 75 64 57 57 48 40 35 32 32 34 31 26 24 22 20 19 17 15 11 10 9 10 11 10 11 10 8 8 8 9 10 8 7 7 7 7 5 6 5 6 6 5 5 5 3 4 4 6 6 6 6 7 6 2 0 8 10 11 11 9 9 8 8 8 9 8 14 15 9 30 74 34 54 74 47 98 102 89 116 64 43 89 131 139 154 349 307 376 607 655 590 651 662 1198 1163 854 939 1255 840 1004 1311 1802 1606 984 1673 1680 1568 859 378 120 118 307 541 291 161 118 209 309 266 227 238 323 373 412 346 280 248 226 185 152 136 127 137 151 163 180 202 217 172 166 125 113 214 366 369 303 197 247 286 292 220 222 252 349 503 617 908 1071 1278 1393 1109 989 884 644 736 723 660 754 888 987 940 970 1141 1319 1207 1076 962 874 824 969 1144 786 922 1074 1079 914 780 847 794 1062 1349 1420 1585 1533 1412 1666 1618 1695 1648 2105 1676 1089 994 1422 2015 1891 1631 966 1248 1065 1301 1317 1436 1060 1145 1260 974 1027 1187 1409 1595 1457 1496 1603 1633 1391 1144 1276 1161 1445 1622 1270 1230 1014 1373 1253 1217 1291 1712 1517 1863 1936 1834 1503 1261 1172 1419 1463 1580 1863 1752 1443 1509 896 681 636 568 883 1303 1335 1391 1740 1564 1382 982 1409 1815 1290 1237 1486 1777 1673 1591 1518 1433 1504 1081 1024 1370 1520 1236 1828 1499 1080 978 907 1160 618 651 599 687 742 899 875 650 676 778 578 500 569 929 926 980 977 948 900 798 772 770 794 847 906 599 583 568 598 631 555 496 467 465 462 473 366 344 342 254 142 104 97 105 133 100 157 212 138 114 124 187 169 327 356 471 304 356 375 261 163 122 117 193 352 351 374 183 53 55 48 46 48 47 48 45 53 57 64 126 153 156 154 189 137 114 129 182 105 128 199 256 136 146 234 265 455 396 154 148 198 303 190 231 388 295 123 188 214 87 62 96 104 146 173 190 117 138 109 381 231 94 4 7 5 9 13 2 2 4 9 4 3 8 7 2 1 2 5 6 5 4 7 7 33 30 76 71 22 13 44 55 52 66 238 378 219 97 114 128 210 449 312 61 17 25 67 29 144 200 408 317 102 33 27 47 73 109 194 124 169 175 30 0 0 0 0 0 0 0 0 0 0 0 0 0 0 0 0 0 0 0 0 0 0 0 0 0 0 0 0 0 0 0 0 0 0 0 0 0 0 0 0 0 0 0 0 0 0 0 0 0 0 0 0 0 0 0 0 2 5 5 6 26 70 90 248 397 681 777 1419 2055 2459 1984 1648 1096 688 337 534 380 7 0 0 0 0 0 0 0 0 0 0 0 0 0 0 0 0 0 0 0 0 0 0 0 0 0 0 0 0 0 0 0 0 0 0 0 0 0 0 0 0 0 0 0 0 0 0 0 0 0 0 0 0 0 0 0 0 0 0 0 0 0 0 0
272 280 262 257 292 330 310 323 365 415 400 409 425 445 423 444 469 501 515 506 501 504 496 504 501 517 506 502 504 523 531 532 545 505 480 468 492 501 489 498 506 493 498 503 502 509 517 507 498 507 498 527 500 465 449 442 451 471 487 478 453 398 385 350 327 322 326 321 322 320 321 323 323 325 330 331 337 339 341 344 345 349 355 361 363 369 377 381 399 439 474 453 410 411 465 508 512 548 576 620 659 697 698 678 628 661 648 654 679 717 808 814 852 780 756 750 822 893 833 659 622 540 511 530 528 520 522 510 465 444 421 403 438 474 475 420 445 493 498 513 548 562 564 572 572 585 654 716 685 783 891 1003 985 988 915 883 885 895 869 929 826 752 701 684 754 785 653 623 595 559 574 625 564 539 550 545 559 589 602 558 550 527 411 319 246 236 223 211 200 190 181 201 237 261 243 228 212 203 185 166 154 140 151 151 122 104 95 86 94 88 87 81 79 54 39 35 29 27 29 28 23 21 20 18 17 16 14 12 10 8 10 9 10 10 8 9 8 9 9 8 8 8 6 4 8 6 4 4 6 6 6 5 4 4 4 4 5 6 6 6 5 4 1 0 7 10 12 10 10 10 9 9 8 8 8 9 9 8 17 69 31 36 51 58 79 141 55 141 49 36 89 123 163 139 347 210 408 531 857 745 676 611 1079 1058 831 810 1118 827 1155 1214 1600 1234 910 1393 1692 1592 1176 967 126 134 378 656 309 180 116 177 270 247 162 226 317 283 328 327 273 247 221 179 155 138 125 125 135 147 162 193 203 172 142 116 133 310 726 1178 947 570 947 1335 954 663 712 522 448 479 660 790 1356 1460 1814 1584 1248 893 802 717 727 724 795 854 798 800 797 824 871 854 1031 1515 1325 1256 1425 1104 907 944 700 690 846 1133 1072 984 901 956 1097 1151 1197 1134 1273 1423 1750 1720 1862 1814 1279 1104 1595 2115 1879 1491 1017 1088 1028 1277 1276 1419 1269 1247 962 1108 1352 1356 1606 1648 1416 1464 1630 1510 1563 1406 1362 1240 1119 1525 1582 1073 985 1476 1423 1568 1325 1341 1485 1420 1533 1614 1847 1812 1417 1289 1164 1015 1425 2087 2324 2006 1530 1398 1046 969 642 577 864 1007 1675 1612 1362 1033 1012 1515 1235 956 1648 1824 1657 1562 1554 1400 1415 1317 1086 969 1005 1005 1201 1190 865 901 809 1333 1291 749 618 481 406 478 562 607 560 1044 677 781 551 809 805 960 935 959 903 809 772 724 716 709 682 528 539 556 646 663 596 492 468 457 472 505 471 336 284 294 188 121 105 91 93 90 110 148 170 152 144 179 262 261 244 267 217 328 292 201 150 155 116 170 344 287 330 216 52 48 46 48 51 59 56 49 55 62 87 137 221 206 250 173 160 175 261 134 121 207 230 137 176 171 143 334 521 294 270 227 332 255 375 444 398 201 167 315 325 104 165 178 46 240 213 52 57 34 24 39 30 71 13 6 3 4 3 6 3 2 5 7 10 2 0 -1 0 4 24 9 5 4 13 12 24 13 13 33 56 15 19 19 27 36 41 41 42 71 176 522 638 455 142 31 12 65 142 32 35 84 126 74 45 77 69 33 26 23 14 28 105 13 13 0 0 0 0 0 0 0 0 0 0 0 0 0 0 0 0 0 0 0 0 0 0 0 0 0 0 0 0 0 0 0 0 0 0 0 0 0 0 0 0 0 0 0 0 0 0 0 0 0 0 0 0 0 0 0 0 2 2 10 11 47 74 142 295 408 504 1115 1182 2119 2435 2325 1539 1301 357 479 268 82 0 0 0 0 0 0 0 0 0 0 0 0 0 0 0 0 0 0 0 0 0 0 0 0 0 0 0 0 0 0 0 0 0 0 0 0 0 0 0 0 0 0 0 0 0 0 0 0 0 0 0 0 0 0 0 0 0 0 0 0 0 0 0 0
298 300 285 276 277 284 294 317 355 406 420 433 460 454 432 457 498 517 522 507 509 501 506 510 506 522 515 510 509 511 531 542 523 490 488 476 496 510 516 524 507 506 505 522 518 527 527 512 494 486 479 467 461 504 475 464 469 499 528 528 463 400 384 330 323 316 319 319 317 316 323 328 330 332 336 344 351 353 352 348 346 350 360 371 372 379 396 417 410 459 498 425 407 423 458 486 535 595 617 624 666 679 598 583 614 678 715 726 663 707 704 695 752 798 838 778 793 818 828 842 891 635 548 541 564 561 550 538 494 446 425 407 418 427 438 413 440 497 497 556 586 574 595 623 600 614 625 682 697 653 689 755 700 667 665 767 867 871 810 779 754 778 740 690 679 730 641 607 571 548 559 602 586 520 517 515 532 561 582 577 473 441 318 311 339 397 345 283 266 209 188 216 231 298 260 247 235 224 209 179 141 134 132 130 123 95 89 85 72 78 76 64 68 55 42 32 31 24 22 21 19 18 18 17 14 14 11 11 12 12 12 11 9 7 8 7 6 7 7 7 7 7 5 4 5 7 4 3 4 5 7 6 4 4 5 5 6 8 8 6 6 4 4 2 3 7 10 9 10 10 9 8 8 9 9 9 9 9 9 37 25 28 50 54 62 164 50 111 60 34 84 155 145 142 216 193 374 585 731 744 604 676 832 928 919 1054 979 1078 1161 1487 1743 1210 872 803 1219 1490 785 472 153 198 339 689 348 160 112 189 197 171 118 109 178 213 283 303 255 245 202 173 155 136 121 117 126 139 162 182 204 185 144 135 194 339 651 1068 890 742 1389 1711 1452 1537 1454 965 1019 1048 1167 1066 1145 1627 1480 1361 1362 1036 778 625 670 808 786 832 794 838 950 1005 1084 1254 1412 1475 1262 1278 1278 837 566 657 890 805 786 894 1142 1488 1278 1133 1198 1300 1383 1598 1518 1352 1718 1634 1584 1678 1517 1445 1667 1951 1665 1502 1267 1380 863 1002 1175 1426 1256 1149 1334 1190 1251 1207 1299 1382 1374 1408 1636 1466 1598 1537 1418 984 1422 1448 1411 1139 1161 1633 1276 1410 1618 1713 1798 1722 1671 1671 1779 1787 1695 1341 1326 1448 971 1531 1819 1942 1878 1712 1510 1312 911 890 435 503 831 1198 1507 1133 628 837 1028 1051 1704 1627 1558 1481 1534 1346 1460 1485 1579 1567 1333 1169 640 727 574 599 758 1167 1147 917 670 775 493 485 417 480 390 557 958 1149 750 573 561 872 889 933 867 809 744 700 614 688 552 411 512 635 688 552 471 421 419 504 483 473 447 355 287 279 251 231 169 111 121 89 89 100 137 171 227 231 219 188 158 133 149 223 238 198 121 102 95 120 151 228 241 185 65 58 53 49 51 55 56 63 69 92 170 178 281 352 481 299 334 249 161 129 162 257 388 234 173 187 251 319 315 217 282 419 390 337 384 283 267 139 122 162 214 496 200 112 150 147 63 28 13 17 22 13 19 77 34 8 3 7 3 3 1 1 7 14 10 6 0 -1 2 20 37 30 20 11 13 30 31 52 32 50 94 36 36 44 32 65 133 160 391 400 478 325 357 87 84 9 7 47 81 6 14 31 13 10 12 20 37 18 8 6 4 21 29 14 3 0 0 0 0 0 0 0 0 0 0 0 0 0 0 0 0 0 0 0 0 0 0 0 0 0 0 0 0 0 0 0 0 0 0 0 0 0 0 0 0 0 0 0 0 0 0 0 0 0 0 0 0 0 0 0 0 0 2 17 18 55 114 133 142 317 528 949 1501 2069 1599 2232 1595 785 220 357 215 2 0 0 0 0 0 0 0 0 0 0 0 0 0 0 0 0 0 0 0 0 0 0 0 0 0 0 0 0 0 0 0 0 0 0 0 0 0 0 0 0 0 0 0 0 0 0 0 0 0 0 0 0 0 0 0 0 0 0 0 0 0 0 0 0
342 313 305 283 278 280 306 322 351 380 425 472 483 456 449 474 530 535 517 515 519 505 515 522 513 522 525 519 522 515 546 553 516 510 500 490 508 535 547 532 515 519 513 528 533 530 509 487 477 461 456 474 433 470 495 513 487 473 427 362 312 314 318 319 316 310 313 316 319 326 330 332 339 343 345 348 357 363 363 359 354 364 373 378 393 423 413 456 446 544 510 443 445 435 473 488 544 545 504 567 617 617 554 604 645 673 712 785 687 700 726 720 718 716 733 779 814 865 881 885 877 842 671 571 565 588 594 552 508 484 454 414 389 389 382 393 467 521 503 534 594 585 605 697 697 791 894 885 888 637 761 662 646 646 556 571 658 738 846 822 767 769 752 702 662 736 744 689 597 546 543 566 551 540 513 509 510 529 579 622 547 457 410 475 420 456 532 450 434 270 183 178 297 462 265 269 251 209 194 165 170 157 135 114 103 104 79 69 62 67 56 49 43 46 41 29 22 24 19 16 16 16 15 15 12 11 9 13 13 13 12 10 9 8 7 5 5 6 7 7 7 6 5 4 3 3 6 3 4 5 6 6 5 4 4 4 6 8 8 6 7 5 3 2 0 3 7 9 8 8 9 8 8 9 10 9 9 8 11 42 36 44 52 58 67 158 55 61 103 31 109 111 73 127 122 263 329 613 817 631 588 686 657 921 665 1078 1025 1331 1212 1691 1928 1561 1294 832 774 1249 960 505 149 227 423 739 545 197 139 109 138 123 119 111 163 248 296 278 252 223 183 158 145 130 116 112 120 131 148 167 196 180 134 122 248 434 726 912 916 833 1370 1235 1244 1217 1051 1001 931 1249 1293 1526 1277 1221 1350 1176 1092 879 816 607 747 798 868 969 1030 1028 1158 1349 1208 1123 1057 1095 1045 866 841 753 819 818 853 1091 1381 886 833 1373 1243 952 1136 1252 1302 1934 1684 1556 1785 1581 1969 1599 1562 1828 1977 2006 1750 1384 1205 1416 960 1143 1221 1220 1206 1187 1372 1022 979 1224 1394 1640 1499 1620 1801 1462 1639 1901 1591 1236 1010 1519 982 1029 1031 1395 1175 1040 1629 1549 1367 1930 2000 1431 1278 1320 1735 1678 1183 898 859 1239 1181 1592 1851 1229 1622 1453 1569 1477 754 450 383 668 1426 1480 784 521 567 790 1502 1360 1319 1260 1448 1250 1548 1380 1305 1367 1648 1252 1117 563 459 362 464 674 1027 923 939 712 755 806 476 537 554 782 944 1053 618 781 403 634 861 883 837 779 734 682 651 556 519 492 414 511 518 528 509 430 337 370 403 457 494 460 377 369 332 434 330 125 122 95 91 108 212 187 135 109 100 94 86 110 162 157 165 169 119 87 88 92 105 108 80 75 73 86 57 107 91 56 59 69 87 128 158 180 259 603 627 630 643 398 115 121 197 435 229 159 158 192 210 174 176 169 222 352 308 329 212 138 182 86 108 160 193 382 170 298 133 67 71 53 99 112 80 28 59 34 2 2 2 32 3 2 0 1 6 4 -1 -2 -1 -1 10 67 130 32 25 26 72 92 332 350 324 197 188 108 91 49 67 90 139 251 497 275 111 89 170 49 7 15 14 8 3 4 5 40 17 29 17 8 8 5 8 4 0 0 0 0 0 0 0 0 0 0 0 0 0 0 0 0 0 0 0 0 0 0 0 0 0 0 0 0 0 0 0 0 0 0 0 0 0 0 0 0 0 0 0 0 0 0 0 0 0 0 0 0 0 0 0 0 0 0 0 0 0 0 1 5 17 35 72 87 105 163 376 793 1353 2001 1539 1475 976 404 299 394 24 0 0 0 0 0 0 0 0 0 0 0 0 0 0 0 0 0 0 0 0 0 0 0 0 0 0 0 0 0 0 0 0 0 0 0 0 0 0 0 0 0 0 0 0 0 0 0 0 0 0 0 0 0 0 0 0 0 0 0 0 0 0 0 0 0
350 339 296 299 301 294 298 315 355 403 458 505 489 462 466 495 535 533 520 527 521 510 523 533 523 529 535 539 528 527 523 536 545 550 520 502 512 532 561 546 530 529 518 453 448 416 406 431 377 355 384 380 346 405 417 468 466 439 316 306 305 309 312 314 310 315 315 319 329 332 339 341 350 351 354 351 355 366 372 373 380 391 410 406 408 439 487 531 467 537 518 466 480 425 445 499 519 457 464 536 599 535 564 647 615 576 624 692 716 738 776 785 759 799 745 738 743 773 877 981 917 892 808 596 574 582 568 567 536 527 487 483 417 396 398 395 468 535 533 539 552 600 600 679 967 982 1048 1022 711 621 613 691 606 680 572 490 485 492 690 864 771 722 726 663 645 585 586 618 589 554 536 503 486 493 507 464 430 444 550 588 610 586 558 610 441 296 299 280 307 268 203 168 154 168 195 278 264 230 247 191 211 232 174 143 97 91 96 85 70 54 50 55 50 36 35 26 19 16 17 16 15 14 12 12 11 11 12 13 12 7 10 10 12 8 7 5 4 5 6 5 7 5 5 5 4 3 5 4 4 4 4 5 5 5 5 6 6 7 7 5 7 5 7 6 3 0 4 6 6 7 8 9 8 9 10 8 8 7 12 72 44 30 35 46 64 177 71 43 118 38 78 141 79 67 198 243 208 418 846 765 521 995 939 555 837 1206 1189 1153 1019 1598 2017 1443 1382 1294 908 629 944 408 157 141 377 823 786 250 241 128 116 190 198 96 150 224 242 236 223 215 173 147 133 120 110 108 113 127 142 162 187 178 145 137 316 407 630 587 925 798 967 1021 940 885 793 985 1004 1254 1235 1119 933 1124 1330 1102 993 974 721 599 751 788 1002 954 941 739 689 636 615 671 768 1288 1258 1215 1501 1674 974 957 768 1026 1485 1245 850 1299 893 976 1289 1427 989 1520 1683 1348 1770 1266 1665 1673 1319 1534 2052 1964 1680 1488 1432 1546 1016 853 978 1016 1021 1325 1177 1115 1069 1215 1371 1405 1657 1601 1399 1308 1514 1665 1317 1254 961 921 1105 1515 1082 998 979 846 1114 1258 1356 1306 1771 1361 1083 1205 1349 1383 1453 1360 1236 836 1230 1165 1496 1302 1045 1715 2091 1688 1499 1032 508 352 684 1039 1397 737 500 1429 1329 1209 1197 1277 1016 1392 1613 1268 1343 776 1126 1489 1259 1286 585 238 266 350 602 633 1029 875 498 567 746 892 786 791 1229 1336 758 557 548 364 663 810 765 728 671 627 578 536 551 506 440 358 457 513 462 386 284 317 344 472 533 489 480 441 460 369 266 114 100 86 83 90 122 91 79 89 102 102 113 123 136 118 90 99 76 95 103 87 155 125 87 78 74 93 76 170 132 75 78 94 144 192 188 199 598 746 506 438 304 234 94 131 188 253 198 144 262 471 445 363 205 280 349 278 251 174 177 81 67 52 78 190 292 354 207 127 106 62 90 139 125 100 72 48 63 56 36 137 53 1 4 2 1 3 1 -1 -1 -1 2 -1 7 25 81 56 71 60 95 36 52 110 137 84 82 38 117 165 113 95 22 169 73 53 134 89 72 1 10 50 51 34 43 2 0 11 53 18 24 20 3 5 6 0 0 0 0 0 0 0 0 0 0 0 0 0 0 0 0 0 0 0 0 0 0 0 0 0 0 0 0 0 0 0 0 0 0 0 0 0 0 0 0 0 0 0 0 0 0 0 0 0 0 0 0 0 0 0 0 0 0 0 0 0 0 0 0 4 12 61 94 75 50 92 543 1090 1856 1852 1527 1122 824 325 169 20 0 0 0 0 0 0 0 0 0 0 0 0 0 0 0 0 0 0 0 0 0 0 0 0 0 0 0 0 0 0 0 0 0 0 0 0 0 0 0 0 0 0 0 0 0 0 0 0 0 0 0 0 0 0 0 0 0 0 0 0 0 0 0 0 0 0
374 338 309 323 328 322 315 331 352 409 480 504 494 476 486 502 530 538 527 534 521 516 531 544 537 533 549 544 541 543 531 537 563 564 521 513 512 549 535 516 463 410 388 365 366 346 354 358 336 318 320 322 314 356 402 361 351 323 305 310 311 313 311 309 316 321 327 331 340 347 351 352 357 361 365 366 401 407 445 462 485 504 464 448 454 438 481 565 521 559 526 498 527 467 432 444 443 434 445 516 579 526 493 545 487 533 599 594 714 736 746 824 817 847 826 790 788 753 777 795 829 927 916 635 599 597 585 575 563 551 569 459 428 480 425 416 456 498 504 484 504 590 618 646 972 995 1041 1041 810 619 591 631 580 664 668 489 467 506 525 629 710 614 607 643 578 530 490 640 609 584 550 527 513 477 454 495 408 390 420 457 529 556 452 336 273 252 221 198 188 173 161 157 148 165 147 154 196 173 221 223 222 224 165 133 98 75 94 91 86 76 69 60 55 48 27 25 16 12 13 13 13 13 10 10 9 10 9 9 9 9 10 7 8 7 6 6 3 4 5 5 6 5 5 3 4 3 4 5 6 7 4 4 6 6 6 8 7 7 7 7 5 1 2 5 4 0 3 6 6 6 7 7 7 8 7 7 5 7 8 63 67 21 30 36 56 153 110 45 69 109 41 163 75 88 214 204 226 428 464 652 475 813 1022 629 942 1669 1457 1330 1137 1647 2039 1370 1214 1138 748 771 569 370 165 141 252 675 715 434 234 167 155 268 233 107 174 201 205 196 201 208 177 139 121 111 107 104 110 120 137 161 183 162 123 148 297 500 609 427 472 559 737 772 959 796 879 993 1108 954 933 748 844 1244 1536 1268 833 885 598 609 607 720 829 821 628 546 567 627 929 1128 946 1030 1051 1331 1461 1396 744 994 1000 1202 1285 1479 1069 911 889 1035 1219 1350 1010 1035 1552 1482 1390 1181 1520 1988 1683 1366 1464 1733 1411 1942 1669 1580 1273 922 1205 1247 1154 1336 1380 1139 1260 1384 1306 1328 1560 1505 1377 1268 1064 1468 1519 1231 1186 1023 1261 1530 1208 889 1107 882 905 1337 1163 898 927 950 1237 1630 1583 1164 911 816 1072 1121 845 1288 1691 1242 1036 1433 1752 1780 2165 1671 1115 605 351 605 832 715 658 1258 703 1070 946 1090 1032 1221 1147 1403 1373 756 1034 1160 1762 1367 1049 342 218 477 390 450 543 532 472 451 634 1087 852 823 1028 1317 980 453 401 291 333 630 705 735 670 578 579 642 624 511 415 329 295 377 389 320 292 303 308 348 379 302 241 195 348 345 168 122 96 89 96 101 83 87 97 94 100 86 105 118 141 152 110 94 75 100 99 86 137 108 59 61 58 93 139 135 135 126 234 243 239 253 190 207 223 241 178 120 110 132 125 163 198 223 335 263 260 383 382 289 295 452 342 211 177 120 70 47 47 68 133 160 226 306 268 243 305 53 117 215 261 75 46 45 108 83 90 74 16 6 33 2 1 1 4 0 3 -1 14 20 7 5 4 7 16 71 57 30 74 87 69 59 33 34 135 179 34 15 42 31 37 91 55 8 8 5 14 20 11 98 55 1 0 0 3 5 2 1 0 0 0 0 0 0 0 0 0 0 0 0 0 0 0 0 0 0 0 0 0 0 0 0 0 0 0 0 0 0 0 0 0 0 0 0 0 0 0 0 0 0 0 0 0 0 0 0 0 0 0 0 0 0 0 0 0 0 0 0 0 0 0 0 0 0 0 2 9 28 110 50 42 63 361 806 1242 1373 1835 1339 478 93 39 2 0 0 0 0 0 0 0 0 0 0 0 0 0 0 0 0 0 0 0 0 0 0 0 0 0 0 0 0 0 0 0 0 0 0 0 0 0 0 0 0 0 0 0 0 0 0 0 0 0 0 0 0 0 0 0 0 0 0 0 0 0 0 0 0 0 0
386 367 337 352 362 334 351 353 372 432 476 531 519 489 503 524 544 537 541 543 531 524 526 546 554 540 556 553 561 554 546 540 561 585 549 533 523 546 489 402 379 360 363 343 336 323 327 315 307 303 303 300 301 310 320 296 299 307 309 306 316 325 321 322 324 334 337 345 354 366 380 398 426 419 556 560 632 580 476 493 509 558 549 485 545 490 506 566 576 587 541 505 533 518 507 528 547 515 459 446 494 508 476 499 520 543 678 639 676 763 760 759 783 859 901 784 851 771 778 812 877 1016 903 644 598 586 610 602 594 583 505 434 382 406 411 396 467 471 407 454 570 709 723 788 701 547 722 741 634 573 586 540 539 539 618 474 437 478 508 527 564 541 463 507 469 455 439 565 619 577 533 496 501 526 393 418 394 346 476 606 510 390 292 253 227 212 193 186 180 173 162 166 194 168 137 121 127 223 256 244 230 167 148 114 89 72 74 90 73 67 56 44 44 40 29 20 17 11 10 10 10 12 10 9 8 8 6 7 9 9 9 5 8 7 6 6 5 3 4 5 3 5 6 3 3 3 4 6 7 7 6 5 6 6 6 8 8 7 6 7 6 6 1 5 6 0 1 6 7 6 6 7 7 6 4 3 0 4 8 13 94 26 15 23 55 80 135 80 40 89 61 91 106 144 144 189 383 303 404 683 473 782 1042 708 1181 1579 1220 1397 1332 1703 1843 1787 1404 1211 822 929 1009 522 183 144 407 727 697 487 276 237 262 328 197 117 119 159 169 167 185 207 181 140 112 103 101 102 105 110 126 147 158 146 108 208 250 446 471 322 594 812 991 985 1017 907 1002 1042 1131 883 776 831 1062 1232 1319 1136 800 589 543 499 508 636 871 846 604 559 694 876 1348 1397 1120 991 1029 1322 1434 1217 743 838 820 1291 1394 1447 1396 1091 1117 1262 1164 1306 1169 933 1372 1487 1008 1043 1341 1869 1652 1666 1427 1365 1337 1675 1860 1291 1209 1075 1157 1360 1266 1221 1407 1215 1125 1328 1349 1362 1555 1534 1404 1414 1224 1063 1610 1473 1389 1171 1105 1404 1408 1328 1432 1287 799 1132 957 1169 1265 961 1244 1250 1545 1784 1536 1308 1073 848 775 670 734 1166 666 1246 1141 1249 2015 2167 1268 846 763 263 597 616 572 780 649 752 773 609 836 718 1017 954 866 926 711 730 1221 1126 694 237 222 374 873 473 703 426 440 608 699 1038 703 610 1051 1203 980 645 439 379 257 322 419 623 579 509 544 555 547 496 355 307 278 269 230 215 285 342 294 292 263 167 146 149 153 206 150 113 98 89 141 187 141 165 124 140 96 80 103 107 113 111 99 98 89 109 122 81 96 123 54 57 63 92 167 139 140 241 210 138 143 222 157 215 99 109 107 107 136 164 187 155 152 250 592 595 417 183 419 538 345 340 226 147 111 67 73 68 58 118 224 159 266 472 335 221 112 43 66 72 115 78 84 106 136 167 316 91 31 32 30 2 2 1 0 1 -1 -1 -1 0 1 0 2 30 46 91 55 57 55 60 46 50 54 101 36 3 0 6 179 75 56 45 30 0 1 0 0 33 46 19 10 3 0 0 0 0 0 0 0 0 0 0 0 0 0 0 0 0 0 0 0 0 0 0 0 0 0 0 0 0 0 0 0 0 0 0 0 0 0 0 0 0 0 0 0 0 0 0 0 0 0 0 0 0 0 0 0 0 0 0 0 0 0 0 0 0 0 0 0 0 0 0 0 0 0 0 10 23 83 27 39 70 324 896 1365 1529 1538 835 340 21 2 0 0 0 0 0 0 0 0 0 0 0 0 0 0 0 0 0 0 0 0 0 0 0 0 0 0 0 0 0 0 0 0 0 0 0 0 0 0 0 0 0 0 0 0 0 0 0 0 0 0 0 0 0 0 0 0 0 0 0 0 0 0 0 0 0 0 0
389 398 368 392 407 357 377 388 392 429 493 544 529 508 523 551 551 546 559 548 541 535 529 544 578 553 568 575 585 581 559 544 539 569 568 552 517 480 426 388 335 322 328 309 310 303 305 301 293 291 292 289 292 292 294 298 306 312 319 316 314 320 344 363 349 356 365 368 404 416 421 518 428 415 699 691 770 640 527 574 579 560 604 540 624 587 584 585 587 603 567 535 543 559 542 527 551 597 513 447 494 482 493 600 534 534 564 646 710 797 686 725 797 826 931 830 871 794 858 860 961 912 789 643 578 561 610 703 629 619 629 680 449 448 364 402 361 411 456 435 514 692 749 610 595 502 519 562 548 568 547 512 479 477 477 411 393 432 523 519 534 477 412 421 405 408 429 484 578 562 507 458 454 441 330 401 456 413 516 500 476 474 305 239 250 252 207 211 194 184 183 180 187 158 177 151 112 181 207 168 221 169 126 102 82 65 70 95 71 58 50 43 33 25 17 15 13 10 8 8 9 11 9 8 5 6 7 6 7 6 3 3 7 6 4 6 6 5 3 4 3 3 5 2 3 4 4 5 6 6 7 6 6 6 7 7 7 6 6 6 6 6 1 5 8 2 0 1 5 6 5 6 6 6 3 5 3 0 1 7 67 53 11 13 31 78 59 124 55 36 107 97 94 217 117 273 304 310 434 702 795 730 1429 692 1064 1545 1324 1105 1406 1760 1694 1695 1580 1497 1376 962 1033 511 207 152 308 760 686 542 478 271 243 416 228 146 99 131 142 162 179 187 170 132 104 98 98 97 101 102 113 133 145 151 112 179 139 283 538 332 424 626 843 918 1087 1057 1022 1189 1188 1130 1101 1077 786 875 1133 940 603 505 505 546 568 537 658 607 595 631 816 792 1429 1869 1216 970 1033 1290 1104 1095 805 666 835 1174 1194 1336 1318 1370 1398 1189 1114 1186 1350 909 1342 1278 1026 1194 1209 1795 1542 1490 1525 1537 1275 1205 1336 1029 923 1058 1029 1130 1189 1202 1079 1423 1246 1380 1440 1182 1319 1528 1560 1471 1288 1208 1079 1608 1518 1221 1012 1081 1288 1325 1363 1279 812 662 733 923 1185 1127 952 1012 1439 1593 1311 1520 2175 1966 1527 900 605 462 572 745 983 1248 1395 1987 1535 1397 1730 824 269 567 436 423 602 515 972 957 1301 1020 1000 661 1109 1616 1124 830 1379 592 350 192 226 360 713 715 740 744 559 548 858 1066 681 472 798 1142 856 667 564 480 317 250 315 562 535 456 394 416 471 485 390 336 283 262 260 191 207 263 275 249 212 161 207 141 116 157 158 119 98 140 212 228 201 147 169 157 93 90 100 118 121 125 115 125 95 85 85 78 81 99 103 85 86 99 156 179 193 206 191 184 143 112 102 83 82 92 113 135 192 179 226 208 225 201 342 566 333 279 298 401 481 468 393 381 126 109 120 96 138 186 253 184 169 335 333 128 201 46 61 102 118 60 51 137 68 262 259 96 60 56 33 5 1 1 0 0 0 0 -1 0 0 0 1 57 49 148 68 94 62 94 221 153 181 225 88 20 1 6 106 97 128 12 0 0 0 0 0 0 1 0 2 1 0 0 0 0 0 0 0 0 0 0 0 0 0 0 0 0 0 0 0 0 0 0 0 0 0 0 0 0 0 0 0 0 0 0 0 0 0 0 0 0 0 0 0 0 0 0 0 0 0 0 0 0 0 0 0 0 0 0 0 0 0 0 0 0 0 0 0 0 0 0 0 0 0 0 40 17 32 19 28 55 516 1051 1648 1256 920 697 138 0 0 0 0 0 0 26 5 0 0 0 0 0 0 0 0 0 0 0 0 0 0 0 0 0 0 0 0 0 0 0 0 0 0 0 0 0 0 0 0 0 0 0 0 0 0 0 0 0 0 0 0 0 0 0 0 0 0 0 0 0 0 0 0 0 0 0 0 0
347 390 405 398 423 377 387 413 437 476 501 529 533 532 546 563 550 557 554 561 555 545 535 549 574 579 572 601 592 560 545 499 430 415 499 541 441 376 349 336 309 301 303 299 294 291 294 292 281 282 282 285 291 297 306 308 314 321 332 341 352 355 395 376 369 405 428 427 418 422 435 436 430 418 499 707 770 719 633 595 619 601 684 636 639 628 614 614 624 627 585 556 543 513 496 491 510 550 534 459 458 465 518 629 626 568 613 592 660 684 633 676 735 775 895 914 939 867 915 947 901 651 588 531 450 506 604 577 641 627 674 616 429 528 434 347 404 504 699 566 561 643 466 367 395 487 434 532 532 559 550 508 476 451 433 418 388 411 536 492 456 416 385 382 405 420 424 470 525 471 450 447 414 416 388 334 333 292 349 420 357 290 261 296 414 404 232 213 204 221 230 204 182 164 177 250 193 108 118 144 210 166 117 102 84 65 60 83 71 68 59 37 27 18 14 12 11 11 8 8 8 10 7 6 7 7 6 8 6 2 4 4 4 2 3 4 5 4 2 2 4 2 4 3 2 4 4 5 5 5 5 6 6 8 7 7 6 6 6 6 5 5 3 4 7 6 1 1 1 3 5 6 7 9 3 0 2 3 0 1 13 71 14 8 19 52 34 71 117 36 69 200 98 227 96 242 211 362 377 597 917 628 1088 955 782 1039 1057 1194 1174 1793 1668 1846 1532 1232 1076 1174 788 402 215 159 268 786 626 639 656 275 264 457 249 164 96 104 132 154 153 155 150 123 101 96 95 94 96 97 106 117 130 148 116 92 96 137 335 370 287 562 818 915 1027 1107 1048 1023 1156 1071 1096 1026 867 785 855 617 483 537 562 628 644 613 634 627 713 770 856 1225 1631 1569 1250 969 1110 1066 1043 1067 1100 684 880 820 1213 1000 1123 1385 1202 996 1089 1077 1300 1034 1030 1057 1164 1463 1537 1558 1727 1437 1205 1589 1571 1216 1391 1357 1141 1496 1121 904 1011 1007 1127 1168 1238 1444 1445 1204 1133 1423 1371 1413 1253 1220 1031 1170 1488 1276 1167 1043 1120 1251 1217 1218 1213 817 835 809 599 790 840 904 770 1084 947 1425 2208 2064 1794 1478 1218 816 585 620 574 844 942 2034 1956 1984 1530 1481 528 217 315 266 318 495 1090 747 1337 1311 1068 1196 1238 950 1016 802 1015 1246 466 138 291 410 551 397 700 892 488 469 645 609 568 518 601 1067 1001 662 477 446 368 331 409 337 375 332 313 331 380 383 417 387 303 272 265 248 192 175 214 305 273 190 151 137 137 145 116 104 123 202 227 195 136 121 144 114 114 97 106 112 130 120 118 125 105 89 80 79 89 157 174 115 230 135 131 199 149 157 250 444 265 109 75 72 84 92 111 170 150 183 362 578 427 196 200 421 517 303 265 433 603 703 627 415 254 179 172 110 112 224 208 144 215 158 144 199 199 141 253 152 58 53 48 34 75 320 61 39 37 59 67 13 2 -1 0 0 0 0 2 1 -1 0 0 13 29 59 104 93 76 236 144 41 21 99 70 4 3 2 12 11 10 0 0 0 0 0 0 0 0 0 0 0 0 0 0 0 0 0 0 0 0 0 0 0 0 0 0 0 0 0 0 0 0 0 0 0 0 0 0 0 0 0 0 0 0 0 0 0 0 0 0 0 0 0 0 0 0 0 0 0 0 0 0 0 0 0 0 0 0 0 0 0 0 0 0 0 0 0 0 0 0 0 0 0 0 0 3 10 19 11 14 28 408 1257 1546 719 630 382 3 0 0 0 0 0 0 0 0 0 0 0 0 0 0 0 0 0 0 0 0 0 0 0 0 0 0 0 0 0 0 0 0 0 0 0 0 0 0 0 0 0 0 0 0 0 0 0 0 0 0 0 0 0 0 0 0 0 0 0 0 0 0 0 0 0 0 0 0 0
